# .PCD v0.7 - Point Cloud Data file format
VERSION 0.7
FIELDS x y z
SIZE 4 4 4
TYPE F F F
COUNT 1 1 1
WIDTH 2067
HEIGHT 1
VIEWPOINT 0 0 0 1 0 0 0
POINTS 2067
DATA ascii
-1.05 12 4.6999998
-1.05 12.05 4.6999998
-1.05 11.95 4.75
-1.05 12 4.75
-1.05 12.05 4.75
-1.05 11.95 4.8000002
-1.05 12 4.8000002
-1.05 12.05 4.8000002
-1.05 11.95 4.8499999
-1.05 12 4.8499999
-1.05 12.05 4.8499999
-1.05 11.95 4.9000001
-1.05 12 4.9000001
-1.05 12.05 4.9000001
-1.05 11.95 4.9499998
-1.05 12 4.9499998
-1.05 12.05 4.9499998
-1.05 11.95 5
-1.05 12 5
-1.05 12.05 5
-1.05 11.95 5.0500002
-1.05 12 5.0500002
-1.05 12.05 5.0500002
-1.05 11.95 5.0999999
-1.05 12 5.0999999
-1.05 12.05 5.0999999
-1.05 11.95 5.1500001
-1.05 12 5.1500001
-1.05 12.05 5.1500001
-1.05 11.95 5.1999998
-1.05 12 5.1999998
-1.05 12.05 5.1999998
-1.05 11.95 5.25
-1.05 12 5.25
-1.05 12.05 5.25
-1.05 11.95 5.3000002
-1.05 12 5.3000002
-1.05 12.05 5.3000002
-1.05 11.95 5.3499999
-1.05 12 5.3499999
-1.05 12.05 5.3499999
-1.05 11.95 5.4000001
-1.05 12 5.4000001
-1.05 12.05 5.4000001
-1.05 11.95 5.4499998
-1.05 12 5.4499998
-1.05 12.05 5.4499998
-1.05 11.95 5.5
-1.05 12 5.5
-1.05 12.05 5.5
-0.5 11.95 4.5
-0.5 12 4.5
-0.5 12.05 4.5
-0.5 11.95 4.5500002
-0.5 12 4.5500002
-0.5 12.05 4.5500002
-0.5 11.95 4.5999999
-0.5 12 4.5999999
-0.5 12.05 4.5999999
-0.5 11.95 4.6500001
-0.5 12 4.6500001
-0.5 12.05 4.6500001
-0.5 11.95 4.6999998
-0.5 12 4.6999998
-0.5 12.05 4.6999998
-0.5 11.95 4.75
-0.5 12 4.75
-0.5 12.05 4.75
-0.5 11.95 4.8000002
-0.5 12 4.8000002
-0.5 12.05 4.8000002
-0.5 11.95 4.8499999
-0.5 12 4.8499999
-0.5 12.05 4.8499999
-0.5 11.95 4.9000001
-0.5 12 4.9000001
-0.5 12.05 4.9000001
-0.5 11.95 4.9499998
-0.5 12 4.9499998
-0.5 12.05 4.9499998
-0.5 11.95 5
-0.5 12 5
-0.5 12.05 5
-0.5 11.95 5.0500002
-0.5 12 5.0500002
-0.5 12.05 5.0500002
-0.5 11.95 5.0999999
-0.5 12 5.0999999
-0.5 12.05 5.0999999
-0.5 11.95 5.1500001
-0.5 12 5.1500001
-0.5 12.05 5.1500001
-0.5 11.95 5.1999998
-0.5 12 5.1999998
-0.5 12.05 5.1999998
-0.5 11.95 5.25
-0.5 12 5.25
-0.5 12.05 5.25
-0.5 11.95 5.3000002
-0.5 12 5.3000002
-0.5 12.05 5.3000002
-0.5 11.95 5.3499999
-0.5 12 5.3499999
-0.5 12.05 5.3499999
-0.5 11.95 5.4000001
-0.5 12 5.4000001
-0.5 12.05 5.4000001
-0.5 11.95 5.4499998
-0.5 12 5.4499998
-0.5 12.05 5.4499998
-0.5 11.95 5.5
-0.5 12 5.5
-0.5 12.05 5.5
-0.44999999 11.95 4.5
-0.44999999 12 4.5
-0.44999999 12.05 4.5
-0.44999999 11.95 4.5500002
-0.44999999 12 4.5500002
-0.44999999 12.05 4.5500002
-0.44999999 11.95 4.5999999
-0.44999999 12 4.5999999
-0.44999999 12.05 4.5999999
-0.44999999 11.95 4.6500001
-0.44999999 12 4.6500001
-0.44999999 12.05 4.6500001
-0.44999999 11.95 4.6999998
-0.44999999 12 4.6999998
-0.44999999 12.05 4.6999998
-0.44999999 11.95 4.75
-0.44999999 12 4.75
-0.44999999 12.05 4.75
-0.44999999 11.95 4.8000002
-0.44999999 12 4.8000002
-0.44999999 12.05 4.8000002
-0.44999999 11.95 4.8499999
-0.44999999 12 4.8499999
-0.44999999 12.05 4.8499999
-0.44999999 11.95 4.9000001
-0.44999999 12 4.9000001
-0.44999999 12.05 4.9000001
-0.44999999 11.95 4.9499998
-0.44999999 12 4.9499998
-0.44999999 12.05 4.9499998
-0.44999999 11.95 5
-0.44999999 12 5
-0.44999999 12.05 5
-0.44999999 11.95 5.0500002
-0.44999999 12 5.0500002
-0.44999999 12.05 5.0500002
-0.44999999 11.95 5.0999999
-0.44999999 12 5.0999999
-0.44999999 12.05 5.0999999
-0.44999999 11.95 5.1500001
-0.44999999 12 5.1500001
-0.44999999 12.05 5.1500001
-0.44999999 11.95 5.1999998
-0.44999999 12 5.1999998
-0.44999999 12.05 5.1999998
-0.44999999 11.95 5.25
-0.44999999 12 5.25
-0.44999999 12.05 5.25
-0.44999999 11.95 5.3000002
-0.44999999 12 5.3000002
-0.44999999 12.05 5.3000002
-0.44999999 11.95 5.3499999
-0.44999999 12 5.3499999
-0.44999999 12.05 5.3499999
-0.44999999 11.95 5.4000001
-0.44999999 12 5.4000001
-0.44999999 12.05 5.4000001
-0.44999999 11.95 5.4499998
-0.44999999 12 5.4499998
-0.44999999 12.05 5.4499998
-0.44999999 11.95 5.5
-0.44999999 12 5.5
-0.44999999 12.05 5.5
-0.40000001 11.95 4.5
-0.40000001 12 4.5
-0.40000001 12.05 4.5
-0.40000001 11.95 4.5500002
-0.40000001 12 4.5500002
-0.40000001 12.05 4.5500002
-0.40000001 11.95 4.5999999
-0.40000001 12 4.5999999
-0.40000001 12.05 4.5999999
-0.40000001 11.95 4.6500001
-0.40000001 12 4.6500001
-0.40000001 12.05 4.6500001
-0.40000001 11.95 4.6999998
-0.40000001 12 4.6999998
-0.40000001 12.05 4.6999998
-0.40000001 11.95 4.75
-0.40000001 12 4.75
-0.40000001 12.05 4.75
-0.40000001 11.95 4.8000002
-0.40000001 12 4.8000002
-0.40000001 12.05 4.8000002
-0.40000001 11.95 4.8499999
-0.40000001 12 4.8499999
-0.40000001 12.05 4.8499999
-0.40000001 11.95 4.9000001
-0.40000001 12 4.9000001
-0.40000001 12.05 4.9000001
-0.40000001 11.95 4.9499998
-0.40000001 12 4.9499998
-0.40000001 12.05 4.9499998
-0.40000001 11.95 5
-0.40000001 12 5
-0.40000001 12.05 5
-0.40000001 11.95 5.0500002
-0.40000001 12 5.0500002
-0.40000001 12.05 5.0500002
-0.40000001 11.95 5.0999999
-0.40000001 12 5.0999999
-0.40000001 12.05 5.0999999
-0.40000001 11.95 5.1500001
-0.40000001 12 5.1500001
-0.40000001 12.05 5.1500001
-0.40000001 11.95 5.1999998
-0.40000001 12 5.1999998
-0.40000001 12.05 5.1999998
-0.40000001 11.95 5.25
-0.40000001 12 5.25
-0.40000001 12.05 5.25
-0.40000001 11.95 5.3000002
-0.40000001 12 5.3000002
-0.40000001 12.05 5.3000002
-0.40000001 11.95 5.3499999
-0.40000001 12 5.3499999
-0.40000001 12.05 5.3499999
-0.40000001 11.95 5.4000001
-0.40000001 12 5.4000001
-0.40000001 12.05 5.4000001
-0.40000001 11.95 5.4499998
-0.40000001 12 5.4499998
-0.40000001 12.05 5.4499998
-0.40000001 11.95 5.5
-0.40000001 12 5.5
-0.40000001 12.05 5.5
-0.34999999 11.95 4.5
-0.34999999 12 4.5
-0.34999999 12.05 4.5
-0.34999999 11.95 4.5500002
-0.34999999 12 4.5500002
-0.34999999 12.05 4.5500002
-0.34999999 11.95 4.5999999
-0.34999999 12 4.5999999
-0.34999999 12.05 4.5999999
-0.34999999 11.95 5.4499998
-0.34999999 12 5.4499998
-0.34999999 12.05 5.4499998
-0.34999999 11.95 5.5
-0.34999999 12 5.5
-0.34999999 12.05 5.5
-0.30000001 11.95 4.5
-0.30000001 12 4.5
-0.30000001 12.05 4.5
-0.30000001 11.95 4.5500002
-0.30000001 12 4.5500002
-0.30000001 12.05 4.5500002
-0.30000001 11.95 4.5999999
-0.30000001 12 4.5999999
-0.30000001 12.05 4.5999999
-0.30000001 11.95 5.4499998
-0.30000001 12 5.4499998
-0.30000001 12.05 5.4499998
-0.30000001 11.95 5.5
-0.30000001 12 5.5
-0.30000001 12.05 5.5
-0.25 11.95 4.5
-0.25 12 4.5
-0.25 12.05 4.5
-0.25 11.95 4.5500002
-0.25 12 4.5500002
-0.25 12.05 4.5500002
-0.25 11.95 4.5999999
-0.25 12 4.5999999
-0.25 12.05 4.5999999
-0.25 11.95 5.4499998
-0.25 12 5.4499998
-0.25 12.05 5.4499998
-0.25 11.95 5.5
-0.25 12 5.5
-0.25 12.05 5.5
-0.2 11.95 4.5
-0.2 12 4.5
-0.2 12.05 4.5
-0.2 11.95 4.5500002
-0.2 12 4.5500002
-0.2 12.05 4.5500002
-0.2 11.95 4.5999999
-0.2 12 4.5999999
-0.2 12.05 4.5999999
-0.2 11.95 5.4499998
-0.2 12 5.4499998
-0.2 12.05 5.4499998
-0.2 11.95 5.5
-0.2 12 5.5
-0.2 12.05 5.5
-0.15000001 11.95 4.5
-0.15000001 12 4.5
-0.15000001 12.05 4.5
-0.15000001 11.95 4.5500002
-0.15000001 12 4.5500002
-0.15000001 12.05 4.5500002
-0.15000001 11.95 4.5999999
-0.15000001 12 4.5999999
-0.15000001 12.05 4.5999999
-0.15000001 11.95 5.4499998
-0.15000001 12 5.4499998
-0.15000001 12.05 5.4499998
-0.15000001 11.95 5.5
-0.15000001 12 5.5
-0.15000001 12.05 5.5
-0.1 11.95 4.5
-0.1 12 4.5
-0.1 12.05 4.5
-0.1 11.95 4.5500002
-0.1 12 4.5500002
-0.1 12.05 4.5500002
-0.1 11.95 4.5999999
-0.1 12 4.5999999
-0.1 12.05 4.5999999
-0.1 11.95 5.4499998
-0.1 12 5.4499998
-0.1 12.05 5.4499998
-0.1 11.95 5.5
-0.1 12 5.5
-0.1 12.05 5.5
-0.050000001 11.95 4.5
-0.050000001 12 4.5
-0.050000001 12.05 4.5
-0.050000001 11.95 4.5500002
-0.050000001 12 4.5500002
-0.050000001 12.05 4.5500002
-0.050000001 11.95 4.5999999
-0.050000001 12 4.5999999
-0.050000001 12.05 4.5999999
-0.050000001 11.95 5.4499998
-0.050000001 12 5.4499998
-0.050000001 12.05 5.4499998
-0.050000001 11.95 5.5
-0.050000001 12 5.5
-0.050000001 12.05 5.5
-6.9388939e-17 11.95 4.5
-6.9388939e-17 12 4.5
-6.9388939e-17 12.05 4.5
-6.9388939e-17 11.95 4.5500002
-6.9388939e-17 12 4.5500002
-6.9388939e-17 12.05 4.5500002
-6.9388939e-17 11.95 4.5999999
-6.9388939e-17 12 4.5999999
-6.9388939e-17 12.05 4.5999999
-6.9388939e-17 11.95 5.4499998
-6.9388939e-17 12 5.4499998
-6.9388939e-17 12.05 5.4499998
-6.9388939e-17 11.95 5.5
-6.9388939e-17 12 5.5
-6.9388939e-17 12.05 5.5
0.050000001 11.95 4.5
0.050000001 12 4.5
0.050000001 12.05 4.5
0.050000001 11.95 4.5500002
0.050000001 12 4.5500002
0.050000001 12.05 4.5500002
0.050000001 11.95 4.5999999
0.050000001 12 4.5999999
0.050000001 12.05 4.5999999
0.050000001 11.95 5.4499998
0.050000001 12 5.4499998
0.050000001 12.05 5.4499998
0.050000001 11.95 5.5
0.050000001 12 5.5
0.050000001 12.05 5.5
0.1 11.95 4.5
0.1 12 4.5
0.1 12.05 4.5
0.1 11.95 4.5500002
0.1 12 4.5500002
0.1 12.05 4.5500002
0.1 11.95 4.5999999
0.1 12 4.5999999
0.1 12.05 4.5999999
0.1 11.95 5.4499998
0.1 12 5.4499998
0.1 12.05 5.4499998
0.1 11.95 5.5
0.1 12 5.5
0.1 12.05 5.5
0.15000001 11.95 4.5
0.15000001 12 4.5
0.15000001 12.05 4.5
0.15000001 11.95 4.5500002
0.15000001 12 4.5500002
0.15000001 12.05 4.5500002
0.15000001 11.95 4.5999999
0.15000001 12 4.5999999
0.15000001 12.05 4.5999999
0.15000001 11.95 5.4499998
0.15000001 12 5.4499998
0.15000001 12.05 5.4499998
0.15000001 11.95 5.5
0.15000001 12 5.5
0.15000001 12.05 5.5
0.2 11.95 4.5
0.2 12 4.5
0.2 12.05 4.5
0.2 11.95 4.5500002
0.2 12 4.5500002
0.2 12.05 4.5500002
0.2 11.95 4.5999999
0.2 12 4.5999999
0.2 12.05 4.5999999
0.2 11.95 5.4499998
0.2 12 5.4499998
0.2 12.05 5.4499998
0.2 11.95 5.5
0.2 12 5.5
0.2 12.05 5.5
0.25 11.95 4.5
0.25 12 4.5
0.25 12.05 4.5
0.25 11.95 4.5500002
0.25 12 4.5500002
0.25 12.05 4.5500002
0.25 11.95 4.5999999
0.25 12 4.5999999
0.25 12.05 4.5999999
0.25 11.95 5.4499998
0.25 12 5.4499998
0.25 12.05 5.4499998
0.25 11.95 5.5
0.25 12 5.5
0.25 12.05 5.5
0.30000001 11.95 4.5
0.30000001 12 4.5
0.30000001 12.05 4.5
0.30000001 11.95 4.5500002
0.30000001 12 4.5500002
0.30000001 12.05 4.5500002
0.30000001 11.95 4.5999999
0.30000001 12 4.5999999
0.30000001 12.05 4.5999999
0.30000001 11.95 5.4499998
0.30000001 12 5.4499998
0.30000001 12.05 5.4499998
0.30000001 11.95 5.5
0.30000001 12 5.5
0.30000001 12.05 5.5
0.34999999 11.95 4.5
0.34999999 12 4.5
0.34999999 12.05 4.5
0.34999999 11.95 4.5500002
0.34999999 12 4.5500002
0.34999999 12.05 4.5500002
0.34999999 11.95 4.5999999
0.34999999 12 4.5999999
0.34999999 12.05 4.5999999
0.34999999 11.95 5.4499998
0.34999999 12 5.4499998
0.34999999 12.05 5.4499998
0.34999999 11.95 5.5
0.34999999 12 5.5
0.34999999 12.05 5.5
0.40000001 11.95 4.5
0.40000001 12 4.5
0.40000001 12.05 4.5
0.40000001 11.95 4.5500002
0.40000001 12 4.5500002
0.40000001 12.05 4.5500002
0.40000001 11.95 4.5999999
0.40000001 12 4.5999999
0.40000001 12.05 4.5999999
0.40000001 11.95 5.4499998
0.40000001 12 5.4499998
0.40000001 12.05 5.4499998
0.40000001 11.95 5.5
0.40000001 12 5.5
0.40000001 12.05 5.5
0.44999999 11.95 4.5
0.44999999 12 4.5
0.44999999 12.05 4.5
0.44999999 11.95 4.5500002
0.44999999 12 4.5500002
0.44999999 12.05 4.5500002
0.44999999 11.95 4.5999999
0.44999999 12 4.5999999
0.44999999 12.05 4.5999999
0.44999999 11.95 4.6500001
0.44999999 12 4.6500001
0.44999999 12.05 4.6500001
0.44999999 11.95 4.6999998
0.44999999 12 4.6999998
0.44999999 12.05 4.6999998
0.44999999 11.95 4.75
0.44999999 12 4.75
0.44999999 12.05 4.75
0.44999999 11.95 4.8000002
0.44999999 12 4.8000002
0.44999999 12.05 4.8000002
0.44999999 11.95 4.8499999
0.44999999 12 4.8499999
0.44999999 12.05 4.8499999
0.44999999 11.95 4.9000001
0.44999999 12 4.9000001
0.44999999 12.05 4.9000001
0.44999999 11.95 4.9499998
0.44999999 12 4.9499998
0.44999999 12.05 4.9499998
0.44999999 11.95 5
0.44999999 12 5
0.44999999 12.05 5
0.44999999 11.95 5.0500002
0.44999999 12 5.0500002
0.44999999 12.05 5.0500002
0.44999999 11.95 5.0999999
0.44999999 12 5.0999999
0.44999999 12.05 5.0999999
0.44999999 11.95 5.1500001
0.44999999 12 5.1500001
0.44999999 12.05 5.1500001
0.44999999 11.95 5.1999998
0.44999999 12 5.1999998
0.44999999 12.05 5.1999998
0.44999999 11.95 5.25
0.44999999 12 5.25
0.44999999 12.05 5.25
0.44999999 11.95 5.3000002
0.44999999 12 5.3000002
0.44999999 12.05 5.3000002
0.44999999 11.95 5.3499999
0.44999999 12 5.3499999
0.44999999 12.05 5.3499999
0.44999999 11.95 5.4000001
0.44999999 12 5.4000001
0.44999999 12.05 5.4000001
0.44999999 11.95 5.4499998
0.44999999 12 5.4499998
0.44999999 12.05 5.4499998
0.44999999 11.95 5.5
0.44999999 12 5.5
0.44999999 12.05 5.5
0.5 11.95 4.5
0.5 12 4.5
0.5 12.05 4.5
0.5 11.95 4.5500002
0.5 12 4.5500002
0.5 12.05 4.5500002
0.5 11.95 4.5999999
0.5 12 4.5999999
0.5 12.05 4.5999999
0.5 11.95 4.6500001
0.5 12 4.6500001
0.5 12.05 4.6500001
0.5 11.95 4.6999998
0.5 12 4.6999998
0.5 12.05 4.6999998
0.5 11.95 4.75
0.5 12 4.75
0.5 12.05 4.75
0.5 11.95 4.8000002
0.5 12 4.8000002
0.5 12.05 4.8000002
0.5 11.95 4.8499999
0.5 12 4.8499999
0.5 12.05 4.8499999
0.5 11.95 4.9000001
0.5 12 4.9000001
0.5 12.05 4.9000001
0.5 11.95 4.9499998
0.5 12 4.9499998
0.5 12.05 4.9499998
0.5 11.95 5
0.5 12 5
0.5 12.05 5
0.5 11.95 5.0500002
0.5 12 5.0500002
0.5 12.05 5.0500002
0.5 11.95 5.0999999
0.5 12 5.0999999
0.5 12.05 5.0999999
0.5 11.95 5.1500001
0.5 12 5.1500001
0.5 12.05 5.1500001
0.5 11.95 5.1999998
0.5 12 5.1999998
0.5 12.05 5.1999998
0.5 11.95 5.25
0.5 12 5.25
0.5 12.05 5.25
0.5 11.95 5.3000002
0.5 12 5.3000002
0.5 12.05 5.3000002
0.5 11.95 5.3499999
0.5 12 5.3499999
0.5 12.05 5.3499999
0.5 11.95 5.4000001
0.5 12 5.4000001
0.5 12.05 5.4000001
0.5 11.95 5.4499998
0.5 12 5.4499998
0.5 12.05 5.4499998
0.5 11.95 5.5
0.5 12 5.5
0.5 12.05 5.5
1 11.95 4.5
1 12 4.5
1 12.05 4.5
1 11.95 4.5500002
1 12 4.5500002
1 12.05 4.5500002
1 11.95 4.5999999
1 12 4.5999999
1 12.05 4.5999999
1 11.95 4.6500001
1 12 4.6500001
1 12.05 4.6500001
1 11.95 4.6999998
1 12 4.6999998
1 12.05 4.6999998
1 11.95 4.75
1 12 4.75
1 12.05 4.75
1 11.95 4.8000002
1 12 4.8000002
1 12.05 4.8000002
1 11.95 4.8499999
1 12 4.8499999
1 12.05 4.8499999
1 11.95 4.9000001
1 12 4.9000001
1 12.05 4.9000001
1 11.95 4.9499998
1 12 4.9499998
1 12.05 4.9499998
1 11.95 5
1 12 5
1 12.05 5
1 11.95 5.0500002
1 12 5.0500002
1 12.05 5.0500002
1 11.95 5.0999999
1 12 5.0999999
1 12.05 5.0999999
1 11.95 5.1500001
1 12 5.1500001
1 12.05 5.1500001
1 11.95 5.1999998
1 12 5.1999998
1 12.05 5.1999998
1 11.95 5.25
1 12 5.25
1 12.05 5.25
1 11.95 5.3000002
1 12 5.3000002
1 12.05 5.3000002
1 11.95 5.3499999
1 12 5.3499999
1 12.05 5.3499999
1 11.95 5.4000001
1 12 5.4000001
1 12.05 5.4000001
1 11.95 5.4499998
1 12 5.4499998
1 12.05 5.4499998
1 11.95 5.5
1 12 5.5
1 12.05 5.5
1.05 11.95 4.5
1.05 12 4.5
1.05 12.05 4.5
1.05 11.95 4.5500002
1.05 12 4.5500002
1.05 12.05 4.5500002
1.05 11.95 4.5999999
1.05 12 4.5999999
1.05 12.05 4.5999999
1.05 11.95 4.6500001
1.05 12 4.6500001
1.05 12.05 4.6500001
1.05 11.95 4.6999998
1.05 12 4.6999998
1.05 12.05 4.6999998
1.05 11.95 4.75
1.05 12 4.75
1.05 12.05 4.75
1.05 11.95 4.8000002
1.05 12 4.8000002
1.05 12.05 4.8000002
1.05 11.95 4.8499999
1.05 12 4.8499999
1.05 12.05 4.8499999
1.05 11.95 4.9000001
1.05 12 4.9000001
1.05 12.05 4.9000001
1.05 11.95 4.9499998
1.05 12 4.9499998
1.05 12.05 4.9499998
1.05 11.95 5
1.05 12 5
1.05 12.05 5
1.05 11.95 5.0500002
1.05 12 5.0500002
1.05 12.05 5.0500002
1.05 11.95 5.0999999
1.05 12 5.0999999
1.05 12.05 5.0999999
1.05 11.95 5.1500001
1.05 12 5.1500001
1.05 12.05 5.1500001
1.05 11.95 5.1999998
1.05 12 5.1999998
1.05 12.05 5.1999998
1.05 11.95 5.25
1.05 12 5.25
1.05 12.05 5.25
1.05 11.95 5.3000002
1.05 12 5.3000002
1.05 12.05 5.3000002
1.05 11.95 5.3499999
1.05 12 5.3499999
1.05 12.05 5.3499999
1.05 11.95 5.4000001
1.05 12 5.4000001
1.05 12.05 5.4000001
1.05 11.95 5.4499998
1.05 12 5.4499998
1.05 12.05 5.4499998
1.05 11.95 5.5
1.05 12 5.5
1.05 12.05 5.5
1.1 11.95 4.5
1.1 12 4.5
1.1 12.05 4.5
1.1 11.95 4.5500002
1.1 12 4.5500002
1.1 12.05 4.5500002
1.1 11.95 4.5999999
1.1 12 4.5999999
1.1 12.05 4.5999999
1.1 11.95 4.6500001
1.1 12 4.6500001
1.1 12.05 4.6500001
1.1 11.95 4.6999998
1.1 12 4.6999998
1.1 12.05 4.6999998
1.1 11.95 4.75
1.1 12 4.75
1.1 12.05 4.75
1.1 11.95 4.8000002
1.1 12 4.8000002
1.1 12.05 4.8000002
1.1 11.95 4.8499999
1.1 12 4.8499999
1.1 12.05 4.8499999
1.1 11.95 4.9000001
1.1 12 4.9000001
1.1 12.05 4.9000001
1.1 11.95 4.9499998
1.1 12 4.9499998
1.1 12.05 4.9499998
1.1 11.95 5
1.1 12 5
1.1 12.05 5
1.1 11.95 5.0500002
1.1 12 5.0500002
1.1 12.05 5.0500002
1.1 11.95 5.0999999
1.1 12 5.0999999
1.1 12.05 5.0999999
1.1 11.95 5.1500001
1.1 12 5.1500001
1.1 12.05 5.1500001
1.1 11.95 5.1999998
1.1 12 5.1999998
1.1 12.05 5.1999998
1.1 11.95 5.25
1.1 12 5.25
1.1 12.05 5.25
1.1 11.95 5.3000002
1.1 12 5.3000002
1.1 12.05 5.3000002
1.1 11.95 5.3499999
1.1 12 5.3499999
1.1 12.05 5.3499999
1.1 11.95 5.4000001
1.1 12 5.4000001
1.1 12.05 5.4000001
1.1 11.95 5.4499998
1.1 12 5.4499998
1.1 12.05 5.4499998
1.1 11.95 5.5
1.1 12 5.5
1.1 12.05 5.5
1.15 11.95 4.5
1.15 12 4.5
1.15 12.05 4.5
1.15 11.95 4.5500002
1.15 12 4.5500002
1.15 12.05 4.5500002
1.15 11.95 4.5999999
1.15 12 4.5999999
1.15 12.05 4.5999999
1.15 11.95 5.4499998
1.15 12 5.4499998
1.15 12.05 5.4499998
1.15 11.95 5.5
1.15 12 5.5
1.15 12.05 5.5
1.2 11.95 4.5
1.2 12 4.5
1.2 12.05 4.5
1.2 11.95 4.5500002
1.2 12 4.5500002
1.2 12.05 4.5500002
1.2 11.95 4.5999999
1.2 12 4.5999999
1.2 12.05 4.5999999
1.2 11.95 5.4499998
1.2 12 5.4499998
1.2 12.05 5.4499998
1.2 11.95 5.5
1.2 12 5.5
1.2 12.05 5.5
1.25 11.95 4.5
1.25 12 4.5
1.25 12.05 4.5
1.25 11.95 4.5500002
1.25 12 4.5500002
1.25 12.05 4.5500002
1.25 11.95 4.5999999
1.25 12 4.5999999
1.25 12.05 4.5999999
1.25 11.95 5.4499998
1.25 12 5.4499998
1.25 12.05 5.4499998
1.25 11.95 5.5
1.25 12 5.5
1.25 12.05 5.5
1.3 11.95 4.5
1.3 12 4.5
1.3 12.05 4.5
1.3 11.95 4.5500002
1.3 12 4.5500002
1.3 12.05 4.5500002
1.3 11.95 4.5999999
1.3 12 4.5999999
1.3 12.05 4.5999999
1.3 11.95 5.4499998
1.3 12 5.4499998
1.3 12.05 5.4499998
1.3 11.95 5.5
1.3 12 5.5
1.3 12.05 5.5
1.35 11.95 4.5
1.35 12 4.5
1.35 12.05 4.5
1.35 11.95 4.5500002
1.35 12 4.5500002
1.35 12.05 4.5500002
1.35 11.95 4.5999999
1.35 12 4.5999999
1.35 12.05 4.5999999
1.35 11.95 5.4499998
1.35 12 5.4499998
1.35 12.05 5.4499998
1.35 11.95 5.5
1.35 12 5.5
1.35 12.05 5.5
1.4 11.95 4.5
1.4 12 4.5
1.4 12.05 4.5
1.4 11.95 4.5500002
1.4 12 4.5500002
1.4 12.05 4.5500002
1.4 11.95 4.5999999
1.4 12 4.5999999
1.4 12.05 4.5999999
1.4 11.95 5.4499998
1.4 12 5.4499998
1.4 12.05 5.4499998
1.4 11.95 5.5
1.4 12 5.5
1.4 12.05 5.5
1.45 11.95 4.5
1.45 12 4.5
1.45 12.05 4.5
1.45 11.95 4.5500002
1.45 12 4.5500002
1.45 12.05 4.5500002
1.45 11.95 4.5999999
1.45 12 4.5999999
1.45 12.05 4.5999999
1.45 11.95 5.4499998
1.45 12 5.4499998
1.45 12.05 5.4499998
1.45 11.95 5.5
1.45 12 5.5
1.45 12.05 5.5
1.5 11.95 4.5
1.5 12 4.5
1.5 12.05 4.5
1.5 11.95 4.5500002
1.5 12 4.5500002
1.5 12.05 4.5500002
1.5 11.95 4.5999999
1.5 12 4.5999999
1.5 12.05 4.5999999
1.5 11.95 5.4499998
1.5 12 5.4499998
1.5 12.05 5.4499998
1.5 11.95 5.5
1.5 12 5.5
1.5 12.05 5.5
1.55 11.95 4.5
1.55 12 4.5
1.55 12.05 4.5
1.55 11.95 4.5500002
1.55 12 4.5500002
1.55 12.05 4.5500002
1.55 11.95 4.5999999
1.55 12 4.5999999
1.55 12.05 4.5999999
1.55 11.95 5.4499998
1.55 12 5.4499998
1.55 12.05 5.4499998
1.55 11.95 5.5
1.55 12 5.5
1.55 12.05 5.5
1.6 11.95 4.5
1.6 12 4.5
1.6 12.05 4.5
1.6 11.95 4.5500002
1.6 12 4.5500002
1.6 12.05 4.5500002
1.6 11.95 4.5999999
1.6 12 4.5999999
1.6 12.05 4.5999999
1.6 11.95 5.4499998
1.6 12 5.4499998
1.6 12.05 5.4499998
1.6 11.95 5.5
1.6 12 5.5
1.6 12.05 5.5
1.65 11.95 4.5
1.65 12 4.5
1.65 12.05 4.5
1.65 11.95 4.5500002
1.65 12 4.5500002
1.65 12.05 4.5500002
1.65 11.95 4.5999999
1.65 12 4.5999999
1.65 12.05 4.5999999
1.65 11.95 5.4499998
1.65 12 5.4499998
1.65 12.05 5.4499998
1.65 11.95 5.5
1.65 12 5.5
1.65 12.05 5.5
1.7 11.95 4.5
1.7 12 4.5
1.7 12.05 4.5
1.7 11.95 4.5500002
1.7 12 4.5500002
1.7 12.05 4.5500002
1.7 11.95 4.5999999
1.7 12 4.5999999
1.7 12.05 4.5999999
1.7 11.95 5.4499998
1.7 12 5.4499998
1.7 12.05 5.4499998
1.7 11.95 5.5
1.7 12 5.5
1.7 12.05 5.5
1.75 11.95 4.5
1.75 12 4.5
1.75 12.05 4.5
1.75 11.95 4.5500002
1.75 12 4.5500002
1.75 12.05 4.5500002
1.75 11.95 4.5999999
1.75 12 4.5999999
1.75 12.05 4.5999999
1.75 11.95 5.4499998
1.75 12 5.4499998
1.75 12.05 5.4499998
1.75 11.95 5.5
1.75 12 5.5
1.75 12.05 5.5
1.8 11.95 4.5
1.8 12 4.5
1.8 12.05 4.5
1.8 11.95 4.5500002
1.8 12 4.5500002
1.8 12.05 4.5500002
1.8 11.95 4.5999999
1.8 12 4.5999999
1.8 12.05 4.5999999
1.8 11.95 5.4499998
1.8 12 5.4499998
1.8 12.05 5.4499998
1.8 11.95 5.5
1.8 12 5.5
1.8 12.05 5.5
1.85 11.95 4.5
1.85 12 4.5
1.85 12.05 4.5
1.85 11.95 4.5500002
1.85 12 4.5500002
1.85 12.05 4.5500002
1.85 11.95 4.5999999
1.85 12 4.5999999
1.85 12.05 4.5999999
1.85 11.95 5.4499998
1.85 12 5.4499998
1.85 12.05 5.4499998
1.85 11.95 5.5
1.85 12 5.5
1.85 12.05 5.5
1.9 11.95 4.5
1.9 12 4.5
1.9 12.05 4.5
1.9 11.95 4.5500002
1.9 12 4.5500002
1.9 12.05 4.5500002
1.9 11.95 4.5999999
1.9 12 4.5999999
1.9 12.05 4.5999999
1.9 11.95 4.6500001
1.9 12 4.6500001
1.9 12.05 4.6500001
1.9 11.95 4.6999998
1.9 12 4.6999998
1.9 12.05 4.6999998
1.9 11.95 4.75
1.9 12 4.75
1.9 12.05 4.75
1.9 11.95 4.8000002
1.9 12 4.8000002
1.9 12.05 4.8000002
1.9 11.95 4.8499999
1.9 12 4.8499999
1.9 12.05 4.8499999
1.9 11.95 4.9000001
1.9 12 4.9000001
1.9 12.05 4.9000001
1.9 11.95 4.9499998
1.9 12 4.9499998
1.9 12.05 4.9499998
1.9 11.95 5
1.9 12 5
1.9 12.05 5
1.9 11.95 5.0500002
1.9 12 5.0500002
1.9 12.05 5.0500002
1.9 11.95 5.0999999
1.9 12 5.0999999
1.9 12.05 5.0999999
1.9 11.95 5.1500001
1.9 12 5.1500001
1.9 12.05 5.1500001
1.9 11.95 5.1999998
1.9 12 5.1999998
1.9 12.05 5.1999998
1.9 11.95 5.25
1.9 12 5.25
1.9 12.05 5.25
1.9 11.95 5.3000002
1.9 12 5.3000002
1.9 12.05 5.3000002
1.9 11.95 5.3499999
1.9 12 5.3499999
1.9 12.05 5.3499999
1.9 11.95 5.4000001
1.9 12 5.4000001
1.9 12.05 5.4000001
1.9 11.95 5.4499998
1.9 12 5.4499998
1.9 12.05 5.4499998
1.9 11.95 5.5
1.9 12 5.5
1.9 12.05 5.5
1.95 11.95 4.5
1.95 12 4.5
1.95 12.05 4.5
1.95 11.95 4.5500002
1.95 12 4.5500002
1.95 12.05 4.5500002
1.95 11.95 4.5999999
1.95 12 4.5999999
1.95 12.05 4.5999999
1.95 11.95 4.6500001
1.95 12 4.6500001
1.95 12.05 4.6500001
1.95 11.95 4.6999998
1.95 12 4.6999998
1.95 12.05 4.6999998
1.95 11.95 4.75
1.95 12 4.75
1.95 12.05 4.75
1.95 11.95 4.8000002
1.95 12 4.8000002
1.95 12.05 4.8000002
1.95 11.95 4.8499999
1.95 12 4.8499999
1.95 12.05 4.8499999
1.95 11.95 4.9000001
1.95 12 4.9000001
1.95 12.05 4.9000001
1.95 11.95 4.9499998
1.95 12 4.9499998
1.95 12.05 4.9499998
1.95 11.95 5
1.95 12 5
1.95 12.05 5
1.95 11.95 5.0500002
1.95 12 5.0500002
1.95 12.05 5.0500002
1.95 11.95 5.0999999
1.95 12 5.0999999
1.95 12.05 5.0999999
1.95 11.95 5.1500001
1.95 12 5.1500001
1.95 12.05 5.1500001
1.95 11.95 5.1999998
1.95 12 5.1999998
1.95 12.05 5.1999998
1.95 11.95 5.25
1.95 12 5.25
1.95 12.05 5.25
1.95 11.95 5.3000002
1.95 12 5.3000002
1.95 12.05 5.3000002
1.95 11.95 5.3499999
1.95 12 5.3499999
1.95 12.05 5.3499999
1.95 11.95 5.4000001
1.95 12 5.4000001
1.95 12.05 5.4000001
1.95 11.95 5.4499998
1.95 12 5.4499998
1.95 12.05 5.4499998
1.95 11.95 5.5
1.95 12 5.5
1.95 12.05 5.5
0.5 -2.05 5
0.55000001 -2.05 5
0.49937513 -2.05 5.0249896
0.54931265 -2.05 5.0274887
0.49750209 -2.05 5.0499167
0.5472523 -2.05 5.0549083
0.49438554 -2.05 5.074719
0.54382408 -2.05 5.082191
0.4900333 -2.05 5.0993347
0.53903663 -2.05 5.1092682
0.48445621 -2.05 5.123702
0.53290182 -2.05 5.1360722
0.47766826 -2.05 5.1477599
0.52543509 -2.05 5.1625361
0.46968636 -2.05 5.1714487
0.51665497 -2.05 5.1885939
0.46053049 -2.05 5.1947093
0.50658357 -2.05 5.21418
0.45022357 -2.05 5.2174826
0.4952459 -2.05 5.2392311
0.43879128 -2.05 5.2397127
0.4826704 -2.05 5.2636843
0.42626226 -2.05 5.2613435
0.46888849 -2.05 5.287478
0.41266781 -2.05 5.2823215
0.45393458 -2.05 5.3105536
0.3980419 -2.05 5.3025932
0.43784609 -2.05 5.3328524
0.38242111 -2.05 5.3221087
0.42066321 -2.05 5.3543196
0.36584443 -2.05 5.3408194
0.40242887 -2.05 5.3749013
0.34835336 -2.05 5.3586779
0.38318869 -2.05 5.394546
0.32999158 -2.05 5.3756404
0.36299074 -2.05 5.4132042
0.31080499 -2.05 5.3916636
0.34188548 -2.05 5.43083
0.29084155 -2.05 5.4067078
0.3199257 -2.05 5.4473786
0.27015114 -2.05 5.4207354
0.29716626 -2.05 5.4628091
0.24878553 -2.05 5.4337115
0.27366409 -2.05 5.4770827
0.22679806 -2.05 5.4456038
0.24947786 -2.05 5.4901643
0.20424372 -2.05 5.4563818
0.22466809 -2.05 5.5020204
0.18117888 -2.05 5.4660196
0.19929676 -2.05 5.5126214
0.15766118 -2.05 5.4744921
0.1734273 -2.05 5.5219417
0.13374941 -2.05 5.4817791
0.14712435 -2.05 5.5299568
0.10950334 -2.05 5.4878616
0.12045368 -2.05 5.5366478
0.084983572 -2.05 5.4927249
0.093481928 -2.05 5.5419974
0.060251385 -2.05 5.4963565
0.06627652 -2.05 5.5459924
0.035368599 -2.05 5.4987473
0.03890546 -2.05 5.5486221
0.010397414 -2.05 5.4998918
0.011437155 -2.05 5.549881
-0.014599761 -2.05 5.4997869
-0.016059738 -2.05 5.5497656
-0.039560445 -2.05 5.4984326
-0.043516491 -2.05 5.5482759
-0.06442225 -2.05 5.4958324
-0.070864469 -2.05 5.5454159
-0.089123026 -2.05 5.491993
-0.098035328 -2.05 5.5411921
-0.11360104 -2.05 5.4869237
-0.12496115 -2.05 5.5356164
-0.13779512 -2.05 5.4806376
-0.15157464 -2.05 5.5287013
-0.16164479 -2.05 5.4731503
-0.17780927 -2.05 5.5204649
-0.18509042 -2.05 5.4644799
-0.20359945 -2.05 5.5109277
-0.20807342 -2.05 5.4546485
-0.22888076 -2.05 5.5001135
-0.23053634 -2.05 5.4436812
-0.25358999 -2.05 5.4880495
-0.25242305 -2.05 5.4316049
-0.27766535 -2.05 5.4747653
-0.27367884 -2.05 5.4184494
-0.30104673 -2.05 5.4602942
-0.29425055 -2.05 5.4042482
-0.3236756 -2.05 5.4446731
-0.31408682 -2.05 5.3890367
-0.34549549 -2.05 5.4279404
-0.33313802 -2.05 5.3728528
-0.3664518 -2.05 5.4101377
-0.35135654 -2.05 5.3557367
-0.38649219 -2.05 5.3913102
-0.36869687 -2.05 5.3377314
-0.40556654 -2.05 5.3715048
-0.38511562 -2.05 5.3188825
-0.4236272 -2.05 5.3507705
-0.40057179 -2.05 5.2992363
-0.44062898 -2.05 5.3291597
-0.41502675 -2.05 5.278842
-0.45652944 -2.05 5.306726
-0.42844439 -2.05 5.2577505
-0.4712888 -2.05 5.2835259
-0.4407911 -2.05 5.2360153
-0.4848702 -2.05 5.2596169
-0.45203608 -2.05 5.2136898
-0.49723968 -2.05 5.2350588
-0.4621512 -2.05 5.1908307
-0.50836629 -2.05 5.2099137
-0.47111118 -2.05 5.1674943
-0.51822227 -2.05 5.1842437
-0.47889361 -2.05 5.1437392
-0.52678299 -2.05 5.158113
-0.48547909 -2.05 5.1196246
-0.53402698 -2.05 5.131587
-0.4908511 -2.05 5.0952115
-0.53993618 -2.05 5.1047325
-0.49499625 -2.05 5.07056
-0.54449588 -2.05 5.0776162
-0.49790415 -2.05 5.0457325
-0.54769456 -2.05 5.0503054
-0.49956757 -2.05 5.0207901
-0.54952431 -2.05 5.0228696
-0.49998233 -2.05 4.9957962
-0.54998058 -2.05 4.9953761
-0.49914739 -2.05 4.9708128
-0.54906213 -2.05 4.9678941
-0.49706483 -2.05 4.9459023
-0.54677135 -2.05 4.9404926
-0.49373987 -2.05 4.9211273
-0.54311389 -2.05 4.91324
-0.48918083 -2.05 4.8965492
-0.53809893 -2.05 4.8862038
-0.48339909 -2.05 4.8722296
-0.531739 -2.05 4.8594522
-0.47640911 -2.05 4.8482294
-0.52405 -2.05 4.8330522
-0.46822834 -2.05 4.8246083
-0.51505119 -2.05 4.8070693
-0.45887727 -2.05 4.8014259
-0.50476497 -2.05 4.7815685
-0.44837922 -2.05 4.7787399
-0.49321714 -2.05 4.7566137
-0.43676046 -2.05 4.7566066
-0.4804365 -2.05 4.7322674
-0.42405 -2.05 4.7350821
-0.46645501 -2.05 4.70859
-0.41027969 -2.05 4.7142196
-0.45130765 -2.05 4.6856413
-0.39548385 -2.05 4.6940713
-0.43503225 -2.05 4.6634784
-0.37969953 -2.05 4.6746874
-0.41766948 -2.05 4.6421561
-0.36296615 -2.05 4.656117
-0.39926276 -2.05 4.6217284
-0.34532556 -2.05 4.6384058
-0.37985811 -2.05 4.6022468
-0.3268218 -2.05 4.6215987
-0.35950398 -2.05 4.5837588
-0.3075012 -2.05 4.6057372
-0.33825129 -2.05 4.5663109
-0.28741199 -2.05 4.5908613
-0.31615317 -2.05 4.5499477
-0.26660436 -2.05 4.5770082
-0.29326481 -2.05 4.534709
-0.2451304 -2.05 4.5642123
-0.26964346 -2.05 4.5206332
-0.22304374 -2.05 4.5525055
-0.24534813 -2.05 4.5077558
-0.20039959 -2.05 4.5419168
-0.22043954 -2.05 4.4961085
-0.17725453 -2.05 4.5324736
-0.19497998 -2.05 4.4857211
-0.15366644 -2.05 4.524199
-0.16903308 -2.05 4.4766188
-0.12969425 -2.05 4.5171137
-0.14266367 -2.05 4.4688249
-0.1053979 -2.05 4.5112348
-0.11593769 -2.05 4.4623585
-0.080838107 -2.05 4.506578
-0.088921919 -2.05 4.4572358
-0.056076262 -2.05 4.5031543
-0.061683889 -2.05 4.4534698
-0.031174257 -2.05 4.5009727
-0.034291685 -2.05 4.4510698
-0.0061943317 -2.05 4.5000381
-0.006813765 -2.05 4.4500422
0.018801076 -2.05 4.5003538
0.020681184 -2.05 4.4503889
0.043749493 -2.05 4.5019178
0.04812444 -2.05 4.4521093
0.068588555 -2.05 4.5047269
0.07544741 -2.05 4.4551992
0.093256183 -2.05 4.5087738
0.10258181 -2.05 4.459651
0.11769072 -2.05 4.5140486
0.1294598 -2.05 4.4654531
0.1418311 -2.05 4.5205379
0.1560142 -2.05 4.4725919
0.16561696 -2.05 4.5282259
0.18217866 -2.05 4.4810481
0.18898886 -2.05 4.5370927
0.20788775 -2.05 4.4908018
0.2118884 -2.05 4.5471168
0.23307724 -2.05 4.5018282
0.23425834 -2.05 4.5582728
0.25768417 -2.05 4.5141001
0.25604275 -2.05 4.5705328
0.28164703 -2.05 4.527586
0.27718717 -2.05 4.5838661
0.30490589 -2.05 4.542253
0.29763877 -2.05 4.5982399
0.32740265 -2.05 4.558064
0.31734642 -2.05 4.6136179
0.34908107 -2.05 4.5749793
0.33626091 -2.05 4.6299615
0.36988699 -2.05 4.5929575
0.35433489 -2.05 4.6472297
0.38976836 -2.05 4.6119528
0.37152323 -2.05 4.66538
0.40867555 -2.05 4.631918
0.38778293 -2.05 4.6843667
0.42656124 -2.05 4.6528034
0.4030734 -2.05 4.7041421
0.44338074 -2.05 4.6745563
0.4173564 -2.05 4.7246571
0.45909202 -2.05 4.6971231
0.4305962 -2.05 4.7458606
0.47365582 -2.05 4.7204466
0.44275975 -2.05 4.7676988
0.48703572 -2.05 4.7444687
0.45381665 -2.05 4.7901182
0.49919832 -2.05 4.7691298
0.46373922 -2.05 4.8130617
0.51011312 -2.05 4.7943678
0.47250268 -2.05 4.8364725
0.51975298 -2.05 4.8201199
0.48008513 -2.05 4.8602924
0.52809364 -2.05 4.8463216
0.48646763 -2.05 4.8844609
0.53511441 -2.05 4.8729072
0.49163422 -2.05 4.9089189
0.54079765 -2.05 4.8998108
0.49557197 -2.05 4.9336042
0.54512918 -2.05 4.9269643
0.49827105 -2.05 4.9584551
0.54809815 -2.05 4.9543009
0.49972472 -2.05 4.9834104
0.54969716 -2.05 4.9817514
0.5 -2 5
0.55000001 -2 5
0.49937513 -2 5.0249896
0.54931265 -2 5.0274887
0.49750209 -2 5.0499167
0.5472523 -2 5.0549083
0.49438554 -2 5.074719
0.54382408 -2 5.082191
0.4900333 -2 5.0993347
0.53903663 -2 5.1092682
0.48445621 -2 5.123702
0.53290182 -2 5.1360722
0.47766826 -2 5.1477599
0.52543509 -2 5.1625361
0.46968636 -2 5.1714487
0.51665497 -2 5.1885939
0.46053049 -2 5.1947093
0.50658357 -2 5.21418
0.45022357 -2 5.2174826
0.4952459 -2 5.2392311
0.43879128 -2 5.2397127
0.4826704 -2 5.2636843
0.42626226 -2 5.2613435
0.46888849 -2 5.287478
0.41266781 -2 5.2823215
0.45393458 -2 5.3105536
0.3980419 -2 5.3025932
0.43784609 -2 5.3328524
0.38242111 -2 5.3221087
0.42066321 -2 5.3543196
0.36584443 -2 5.3408194
0.40242887 -2 5.3749013
0.34835336 -2 5.3586779
0.38318869 -2 5.394546
0.32999158 -2 5.3756404
0.36299074 -2 5.4132042
0.31080499 -2 5.3916636
0.34188548 -2 5.43083
0.29084155 -2 5.4067078
0.3199257 -2 5.4473786
0.27015114 -2 5.4207354
0.29716626 -2 5.4628091
0.24878553 -2 5.4337115
0.27366409 -2 5.4770827
0.22679806 -2 5.4456038
0.24947786 -2 5.4901643
0.20424372 -2 5.4563818
0.22466809 -2 5.5020204
0.18117888 -2 5.4660196
0.19929676 -2 5.5126214
0.15766118 -2 5.4744921
0.1734273 -2 5.5219417
0.13374941 -2 5.4817791
0.14712435 -2 5.5299568
0.10950334 -2 5.4878616
0.12045368 -2 5.5366478
0.084983572 -2 5.4927249
0.093481928 -2 5.5419974
0.060251385 -2 5.4963565
0.06627652 -2 5.5459924
0.035368599 -2 5.4987473
0.03890546 -2 5.5486221
0.010397414 -2 5.4998918
0.011437155 -2 5.549881
-0.014599761 -2 5.4997869
-0.016059738 -2 5.5497656
-0.039560445 -2 5.4984326
-0.043516491 -2 5.5482759
-0.06442225 -2 5.4958324
-0.070864469 -2 5.5454159
-0.089123026 -2 5.491993
-0.098035328 -2 5.5411921
-0.11360104 -2 5.4869237
-0.12496115 -2 5.5356164
-0.13779512 -2 5.4806376
-0.15157464 -2 5.5287013
-0.16164479 -2 5.4731503
-0.17780927 -2 5.5204649
-0.18509042 -2 5.4644799
-0.20359945 -2 5.5109277
-0.20807342 -2 5.4546485
-0.22888076 -2 5.5001135
-0.23053634 -2 5.4436812
-0.25358999 -2 5.4880495
-0.25242305 -2 5.4316049
-0.27766535 -2 5.4747653
-0.27367884 -2 5.4184494
-0.30104673 -2 5.4602942
-0.29425055 -2 5.4042482
-0.3236756 -2 5.4446731
-0.31408682 -2 5.3890367
-0.34549549 -2 5.4279404
-0.33313802 -2 5.3728528
-0.3664518 -2 5.4101377
-0.35135654 -2 5.3557367
-0.38649219 -2 5.3913102
-0.36869687 -2 5.3377314
-0.40556654 -2 5.3715048
-0.38511562 -2 5.3188825
-0.4236272 -2 5.3507705
-0.40057179 -2 5.2992363
-0.44062898 -2 5.3291597
-0.41502675 -2 5.278842
-0.45652944 -2 5.306726
-0.42844439 -2 5.2577505
-0.4712888 -2 5.2835259
-0.4407911 -2 5.2360153
-0.4848702 -2 5.2596169
-0.45203608 -2 5.2136898
-0.49723968 -2 5.2350588
-0.4621512 -2 5.1908307
-0.50836629 -2 5.2099137
-0.47111118 -2 5.1674943
-0.51822227 -2 5.1842437
-0.47889361 -2 5.1437392
-0.52678299 -2 5.158113
-0.48547909 -2 5.1196246
-0.53402698 -2 5.131587
-0.4908511 -2 5.0952115
-0.53993618 -2 5.1047325
-0.49499625 -2 5.07056
-0.54449588 -2 5.0776162
-0.49790415 -2 5.0457325
-0.54769456 -2 5.0503054
-0.49956757 -2 5.0207901
-0.54952431 -2 5.0228696
-0.49998233 -2 4.9957962
-0.54998058 -2 4.9953761
-0.49914739 -2 4.9708128
-0.54906213 -2 4.9678941
-0.49706483 -2 4.9459023
-0.54677135 -2 4.9404926
-0.49373987 -2 4.9211273
-0.54311389 -2 4.91324
-0.48918083 -2 4.8965492
-0.53809893 -2 4.8862038
-0.48339909 -2 4.8722296
-0.531739 -2 4.8594522
-0.47640911 -2 4.8482294
-0.52405 -2 4.8330522
-0.46822834 -2 4.8246083
-0.51505119 -2 4.8070693
-0.45887727 -2 4.8014259
-0.50476497 -2 4.7815685
-0.44837922 -2 4.7787399
-0.49321714 -2 4.7566137
-0.43676046 -2 4.7566066
-0.4804365 -2 4.7322674
-0.42405 -2 4.7350821
-0.46645501 -2 4.70859
-0.41027969 -2 4.7142196
-0.45130765 -2 4.6856413
-0.39548385 -2 4.6940713
-0.43503225 -2 4.6634784
-0.37969953 -2 4.6746874
-0.41766948 -2 4.6421561
-0.36296615 -2 4.656117
-0.39926276 -2 4.6217284
-0.34532556 -2 4.6384058
-0.37985811 -2 4.6022468
-0.3268218 -2 4.6215987
-0.35950398 -2 4.5837588
-0.3075012 -2 4.6057372
-0.33825129 -2 4.5663109
-0.28741199 -2 4.5908613
-0.31615317 -2 4.5499477
-0.26660436 -2 4.5770082
-0.29326481 -2 4.534709
-0.2451304 -2 4.5642123
-0.26964346 -2 4.5206332
-0.22304374 -2 4.5525055
-0.24534813 -2 4.5077558
-0.20039959 -2 4.5419168
-0.22043954 -2 4.4961085
-0.17725453 -2 4.5324736
-0.19497998 -2 4.4857211
-0.15366644 -2 4.524199
-0.16903308 -2 4.4766188
-0.12969425 -2 4.5171137
-0.14266367 -2 4.4688249
-0.1053979 -2 4.5112348
-0.11593769 -2 4.4623585
-0.080838107 -2 4.506578
-0.088921919 -2 4.4572358
-0.056076262 -2 4.5031543
-0.061683889 -2 4.4534698
-0.031174257 -2 4.5009727
-0.034291685 -2 4.4510698
-0.0061943317 -2 4.5000381
-0.006813765 -2 4.4500422
0.018801076 -2 4.5003538
0.020681184 -2 4.4503889
0.043749493 -2 4.5019178
0.04812444 -2 4.4521093
0.068588555 -2 4.5047269
0.07544741 -2 4.4551992
0.093256183 -2 4.5087738
0.10258181 -2 4.459651
0.11769072 -2 4.5140486
0.1294598 -2 4.4654531
0.1418311 -2 4.5205379
0.1560142 -2 4.4725919
0.16561696 -2 4.5282259
0.18217866 -2 4.4810481
0.18898886 -2 4.5370927
0.20788775 -2 4.4908018
0.2118884 -2 4.5471168
0.23307724 -2 4.5018282
0.23425834 -2 4.5582728
0.25768417 -2 4.5141001
0.25604275 -2 4.5705328
0.28164703 -2 4.527586
0.27718717 -2 4.5838661
0.30490589 -2 4.542253
0.29763877 -2 4.5982399
0.32740265 -2 4.558064
0.31734642 -2 4.6136179
0.34908107 -2 4.5749793
0.33626091 -2 4.6299615
0.36988699 -2 4.5929575
0.35433489 -2 4.6472297
0.38976836 -2 4.6119528
0.37152323 -2 4.66538
0.40867555 -2 4.631918
0.38778293 -2 4.6843667
0.42656124 -2 4.6528034
0.4030734 -2 4.7041421
0.44338074 -2 4.6745563
0.4173564 -2 4.7246571
0.45909202 -2 4.6971231
0.4305962 -2 4.7458606
0.47365582 -2 4.7204466
0.44275975 -2 4.7676988
0.48703572 -2 4.7444687
0.45381665 -2 4.7901182
0.49919832 -2 4.7691298
0.46373922 -2 4.8130617
0.51011312 -2 4.7943678
0.47250268 -2 4.8364725
0.51975298 -2 4.8201199
0.48008513 -2 4.8602924
0.52809364 -2 4.8463216
0.48646763 -2 4.8844609
0.53511441 -2 4.8729072
0.49163422 -2 4.9089189
0.54079765 -2 4.8998108
0.49557197 -2 4.9336042
0.54512918 -2 4.9269643
0.49827105 -2 4.9584551
0.54809815 -2 4.9543009
0.49972472 -2 4.9834104
0.54969716 -2 4.9817514
0.5 -4.0500002 5.5
0.55000001 -4.0500002 5.5
0.49937513 -4.0500002 5.5249896
0.54931265 -4.0500002 5.5274887
0.49750209 -4.0500002 5.5499167
0.5472523 -4.0500002 5.5549083
0.49438554 -4.0500002 5.574719
0.54382408 -4.0500002 5.582191
0.4900333 -4.0500002 5.5993347
0.53903663 -4.0500002 5.6092682
0.48445621 -4.0500002 5.623702
0.53290182 -4.0500002 5.6360722
0.47766826 -4.0500002 5.6477599
0.52543509 -4.0500002 5.6625361
0.46968636 -4.0500002 5.6714487
0.51665497 -4.0500002 5.6885939
0.46053049 -4.0500002 5.6947093
0.50658357 -4.0500002 5.71418
0.45022357 -4.0500002 5.7174826
0.4952459 -4.0500002 5.7392311
0.43879128 -4.0500002 5.7397127
0.4826704 -4.0500002 5.7636843
0.42626226 -4.0500002 5.7613435
0.46888849 -4.0500002 5.787478
0.41266781 -4.0500002 5.7823215
0.45393458 -4.0500002 5.8105536
0.3980419 -4.0500002 5.8025932
0.43784609 -4.0500002 5.8328524
0.38242111 -4.0500002 5.8221087
0.42066321 -4.0500002 5.8543196
0.36584443 -4.0500002 5.8408194
0.40242887 -4.0500002 5.8749013
0.34835336 -4.0500002 5.8586779
0.38318869 -4.0500002 5.894546
0.32999158 -4.0500002 5.8756404
0.36299074 -4.0500002 5.9132042
0.31080499 -4.0500002 5.8916636
0.34188548 -4.0500002 5.93083
0.29084155 -4.0500002 5.9067078
0.3199257 -4.0500002 5.9473786
0.27015114 -4.0500002 5.9207354
0.29716626 -4.0500002 5.9628091
0.24878553 -4.0500002 5.9337115
0.27366409 -4.0500002 5.9770827
0.22679806 -4.0500002 5.9456038
0.24947786 -4.0500002 5.9901643
0.20424372 -4.0500002 5.9563818
0.22466809 -4.0500002 6.0020204
0.18117888 -4.0500002 5.9660196
0.19929676 -4.0500002 6.0126214
0.15766118 -4.0500002 5.9744921
0.1734273 -4.0500002 6.0219417
0.13374941 -4.0500002 5.9817791
0.14712435 -4.0500002 6.0299568
0.10950334 -4.0500002 5.9878616
0.12045368 -4.0500002 6.0366478
0.084983572 -4.0500002 5.9927249
0.093481928 -4.0500002 6.0419974
0.060251385 -4.0500002 5.9963565
0.06627652 -4.0500002 6.0459924
0.035368599 -4.0500002 5.9987473
0.03890546 -4.0500002 6.0486221
0.010397414 -4.0500002 5.9998918
0.011437155 -4.0500002 6.049881
-0.014599761 -4.0500002 5.9997869
-0.016059738 -4.0500002 6.0497656
-0.039560445 -4.0500002 5.9984326
-0.043516491 -4.0500002 6.0482759
-0.06442225 -4.0500002 5.9958324
-0.070864469 -4.0500002 6.0454159
-0.089123026 -4.0500002 5.991993
-0.098035328 -4.0500002 6.0411921
-0.11360104 -4.0500002 5.9869237
-0.12496115 -4.0500002 6.0356164
-0.13779512 -4.0500002 5.9806376
-0.15157464 -4.0500002 6.0287013
-0.16164479 -4.0500002 5.9731503
-0.17780927 -4.0500002 6.0204649
-0.18509042 -4.0500002 5.9644799
-0.20359945 -4.0500002 6.0109277
-0.20807342 -4.0500002 5.9546485
-0.22888076 -4.0500002 6.0001135
-0.23053634 -4.0500002 5.9436812
-0.25358999 -4.0500002 5.9880495
-0.25242305 -4.0500002 5.9316049
-0.27766535 -4.0500002 5.9747653
-0.27367884 -4.0500002 5.9184494
-0.30104673 -4.0500002 5.9602942
-0.29425055 -4.0500002 5.9042482
-0.3236756 -4.0500002 5.9446731
-0.31408682 -4.0500002 5.8890367
-0.34549549 -4.0500002 5.9279404
-0.33313802 -4.0500002 5.8728528
-0.3664518 -4.0500002 5.9101377
-0.35135654 -4.0500002 5.8557367
-0.38649219 -4.0500002 5.8913102
-0.36869687 -4.0500002 5.8377314
-0.40556654 -4.0500002 5.8715048
-0.38511562 -4.0500002 5.8188825
-0.4236272 -4.0500002 5.8507705
-0.40057179 -4.0500002 5.7992363
-0.44062898 -4.0500002 5.8291597
-0.41502675 -4.0500002 5.778842
-0.45652944 -4.0500002 5.806726
-0.42844439 -4.0500002 5.7577505
-0.4712888 -4.0500002 5.7835259
-0.4407911 -4.0500002 5.7360153
-0.4848702 -4.0500002 5.7596169
-0.45203608 -4.0500002 5.7136898
-0.49723968 -4.0500002 5.7350588
-0.4621512 -4.0500002 5.6908307
-0.50836629 -4.0500002 5.7099137
-0.47111118 -4.0500002 5.6674943
-0.51822227 -4.0500002 5.6842437
-0.47889361 -4.0500002 5.6437392
-0.52678299 -4.0500002 5.658113
-0.48547909 -4.0500002 5.6196246
-0.53402698 -4.0500002 5.631587
-0.4908511 -4.0500002 5.5952115
-0.53993618 -4.0500002 5.6047325
-0.49499625 -4.0500002 5.57056
-0.54449588 -4.0500002 5.5776162
-0.49790415 -4.0500002 5.5457325
-0.54769456 -4.0500002 5.5503054
-0.49956757 -4.0500002 5.5207901
-0.54952431 -4.0500002 5.5228696
-0.49998233 -4.0500002 5.4957962
-0.54998058 -4.0500002 5.4953761
-0.49914739 -4.0500002 5.4708128
-0.54906213 -4.0500002 5.4678941
-0.49706483 -4.0500002 5.4459023
-0.54677135 -4.0500002 5.4404926
-0.49373987 -4.0500002 5.4211273
-0.54311389 -4.0500002 5.41324
-0.48918083 -4.0500002 5.3965492
-0.53809893 -4.0500002 5.3862038
-0.48339909 -4.0500002 5.3722296
-0.531739 -4.0500002 5.3594522
-0.47640911 -4.0500002 5.3482294
-0.52405 -4.0500002 5.3330522
-0.46822834 -4.0500002 5.3246083
-0.51505119 -4.0500002 5.3070693
-0.45887727 -4.0500002 5.3014259
-0.50476497 -4.0500002 5.2815685
-0.44837922 -4.0500002 5.2787399
-0.49321714 -4.0500002 5.2566137
-0.43676046 -4.0500002 5.2566066
-0.4804365 -4.0500002 5.2322674
-0.42405 -4.0500002 5.2350821
-0.46645501 -4.0500002 5.20859
-0.41027969 -4.0500002 5.2142196
-0.45130765 -4.0500002 5.1856413
-0.39548385 -4.0500002 5.1940713
-0.43503225 -4.0500002 5.1634784
-0.37969953 -4.0500002 5.1746874
-0.41766948 -4.0500002 5.1421561
-0.36296615 -4.0500002 5.156117
-0.39926276 -4.0500002 5.1217284
-0.34532556 -4.0500002 5.1384058
-0.37985811 -4.0500002 5.1022468
-0.3268218 -4.0500002 5.1215987
-0.35950398 -4.0500002 5.0837588
-0.3075012 -4.0500002 5.1057372
-0.33825129 -4.0500002 5.0663109
-0.28741199 -4.0500002 5.0908613
-0.31615317 -4.0500002 5.0499477
-0.26660436 -4.0500002 5.0770082
-0.29326481 -4.0500002 5.034709
-0.2451304 -4.0500002 5.0642123
-0.26964346 -4.0500002 5.0206332
-0.22304374 -4.0500002 5.0525055
-0.24534813 -4.0500002 5.0077558
-0.20039959 -4.0500002 5.0419168
-0.22043954 -4.0500002 4.9961085
-0.17725453 -4.0500002 5.0324736
-0.19497998 -4.0500002 4.9857211
-0.15366644 -4.0500002 5.024199
-0.16903308 -4.0500002 4.9766188
-0.12969425 -4.0500002 5.0171137
-0.14266367 -4.0500002 4.9688249
-0.1053979 -4.0500002 5.0112348
-0.11593769 -4.0500002 4.9623585
-0.080838107 -4.0500002 5.006578
-0.088921919 -4.0500002 4.9572358
-0.056076262 -4.0500002 5.0031543
-0.061683889 -4.0500002 4.9534698
-0.031174257 -4.0500002 5.0009727
-0.034291685 -4.0500002 4.9510698
-0.0061943317 -4.0500002 5.0000381
-0.006813765 -4.0500002 4.9500422
0.018801076 -4.0500002 5.0003538
0.020681184 -4.0500002 4.9503889
0.043749493 -4.0500002 5.0019178
0.04812444 -4.0500002 4.9521093
0.068588555 -4.0500002 5.0047269
0.07544741 -4.0500002 4.9551992
0.093256183 -4.0500002 5.0087738
0.10258181 -4.0500002 4.959651
0.11769072 -4.0500002 5.0140486
0.1294598 -4.0500002 4.9654531
0.1418311 -4.0500002 5.0205379
0.1560142 -4.0500002 4.9725919
0.16561696 -4.0500002 5.0282259
0.18217866 -4.0500002 4.9810481
0.18898886 -4.0500002 5.0370927
0.20788775 -4.0500002 4.9908018
0.2118884 -4.0500002 5.0471168
0.23307724 -4.0500002 5.0018282
0.23425834 -4.0500002 5.0582728
0.25768417 -4.0500002 5.0141001
0.25604275 -4.0500002 5.0705328
0.28164703 -4.0500002 5.027586
0.27718717 -4.0500002 5.0838661
0.30490589 -4.0500002 5.042253
0.29763877 -4.0500002 5.0982399
0.32740265 -4.0500002 5.058064
0.31734642 -4.0500002 5.1136179
0.34908107 -4.0500002 5.0749793
0.33626091 -4.0500002 5.1299615
0.36988699 -4.0500002 5.0929575
0.35433489 -4.0500002 5.1472297
0.38976836 -4.0500002 5.1119528
0.37152323 -4.0500002 5.16538
0.40867555 -4.0500002 5.131918
0.38778293 -4.0500002 5.1843667
0.42656124 -4.0500002 5.1528034
0.4030734 -4.0500002 5.2041421
0.44338074 -4.0500002 5.1745563
0.4173564 -4.0500002 5.2246571
0.45909202 -4.0500002 5.1971231
0.4305962 -4.0500002 5.2458606
0.47365582 -4.0500002 5.2204466
0.44275975 -4.0500002 5.2676988
0.48703572 -4.0500002 5.2444687
0.45381665 -4.0500002 5.2901182
0.49919832 -4.0500002 5.2691298
0.46373922 -4.0500002 5.3130617
0.51011312 -4.0500002 5.2943678
0.47250268 -4.0500002 5.3364725
0.51975298 -4.0500002 5.3201199
0.48008513 -4.0500002 5.3602924
0.52809364 -4.0500002 5.3463216
0.48646763 -4.0500002 5.3844609
0.53511441 -4.0500002 5.3729072
0.49163422 -4.0500002 5.4089189
0.54079765 -4.0500002 5.3998108
0.49557197 -4.0500002 5.4336042
0.54512918 -4.0500002 5.4269643
0.49827105 -4.0500002 5.4584551
0.54809815 -4.0500002 5.4543009
0.49972472 -4.0500002 5.4834104
0.54969716 -4.0500002 5.4817514
0.5 -4 5.5
0.55000001 -4 5.5
0.49937513 -4 5.5249896
0.54931265 -4 5.5274887
0.49750209 -4 5.5499167
0.5472523 -4 5.5549083
0.49438554 -4 5.574719
0.54382408 -4 5.582191
0.4900333 -4 5.5993347
0.53903663 -4 5.6092682
0.48445621 -4 5.623702
0.53290182 -4 5.6360722
0.47766826 -4 5.6477599
0.52543509 -4 5.6625361
0.46968636 -4 5.6714487
0.51665497 -4 5.6885939
0.46053049 -4 5.6947093
0.50658357 -4 5.71418
0.45022357 -4 5.7174826
0.4952459 -4 5.7392311
0.43879128 -4 5.7397127
0.4826704 -4 5.7636843
0.42626226 -4 5.7613435
0.46888849 -4 5.787478
0.41266781 -4 5.7823215
0.45393458 -4 5.8105536
0.3980419 -4 5.8025932
0.43784609 -4 5.8328524
0.38242111 -4 5.8221087
0.42066321 -4 5.8543196
0.36584443 -4 5.8408194
0.40242887 -4 5.8749013
0.34835336 -4 5.8586779
0.38318869 -4 5.894546
0.32999158 -4 5.8756404
0.36299074 -4 5.9132042
0.31080499 -4 5.8916636
0.34188548 -4 5.93083
0.29084155 -4 5.9067078
0.3199257 -4 5.9473786
0.27015114 -4 5.9207354
0.29716626 -4 5.9628091
0.24878553 -4 5.9337115
0.27366409 -4 5.9770827
0.22679806 -4 5.9456038
0.24947786 -4 5.9901643
0.20424372 -4 5.9563818
0.22466809 -4 6.0020204
0.18117888 -4 5.9660196
0.19929676 -4 6.0126214
0.15766118 -4 5.9744921
0.1734273 -4 6.0219417
0.13374941 -4 5.9817791
0.14712435 -4 6.0299568
0.10950334 -4 5.9878616
0.12045368 -4 6.0366478
0.084983572 -4 5.9927249
0.093481928 -4 6.0419974
0.060251385 -4 5.9963565
0.06627652 -4 6.0459924
0.035368599 -4 5.9987473
0.03890546 -4 6.0486221
0.010397414 -4 5.9998918
0.011437155 -4 6.049881
-0.014599761 -4 5.9997869
-0.016059738 -4 6.0497656
-0.039560445 -4 5.9984326
-0.043516491 -4 6.0482759
-0.06442225 -4 5.9958324
-0.070864469 -4 6.0454159
-0.089123026 -4 5.991993
-0.098035328 -4 6.0411921
-0.11360104 -4 5.9869237
-0.12496115 -4 6.0356164
-0.13779512 -4 5.9806376
-0.15157464 -4 6.0287013
-0.16164479 -4 5.9731503
-0.17780927 -4 6.0204649
-0.18509042 -4 5.9644799
-0.20359945 -4 6.0109277
-0.20807342 -4 5.9546485
-0.22888076 -4 6.0001135
-0.23053634 -4 5.9436812
-0.25358999 -4 5.9880495
-0.25242305 -4 5.9316049
-0.27766535 -4 5.9747653
-0.27367884 -4 5.9184494
-0.30104673 -4 5.9602942
-0.29425055 -4 5.9042482
-0.3236756 -4 5.9446731
-0.31408682 -4 5.8890367
-0.34549549 -4 5.9279404
-0.33313802 -4 5.8728528
-0.3664518 -4 5.9101377
-0.35135654 -4 5.8557367
-0.38649219 -4 5.8913102
-0.36869687 -4 5.8377314
-0.40556654 -4 5.8715048
-0.38511562 -4 5.8188825
-0.4236272 -4 5.8507705
-0.40057179 -4 5.7992363
-0.44062898 -4 5.8291597
-0.41502675 -4 5.778842
-0.45652944 -4 5.806726
-0.42844439 -4 5.7577505
-0.4712888 -4 5.7835259
-0.4407911 -4 5.7360153
-0.4848702 -4 5.7596169
-0.45203608 -4 5.7136898
-0.49723968 -4 5.7350588
-0.4621512 -4 5.6908307
-0.50836629 -4 5.7099137
-0.47111118 -4 5.6674943
-0.51822227 -4 5.6842437
-0.47889361 -4 5.6437392
-0.52678299 -4 5.658113
-0.48547909 -4 5.6196246
-0.53402698 -4 5.631587
-0.4908511 -4 5.5952115
-0.53993618 -4 5.6047325
-0.49499625 -4 5.57056
-0.54449588 -4 5.5776162
-0.49790415 -4 5.5457325
-0.54769456 -4 5.5503054
-0.49956757 -4 5.5207901
-0.54952431 -4 5.5228696
-0.49998233 -4 5.4957962
-0.54998058 -4 5.4953761
-0.49914739 -4 5.4708128
-0.54906213 -4 5.4678941
-0.49706483 -4 5.4459023
-0.54677135 -4 5.4404926
-0.49373987 -4 5.4211273
-0.54311389 -4 5.41324
-0.48918083 -4 5.3965492
-0.53809893 -4 5.3862038
-0.48339909 -4 5.3722296
-0.531739 -4 5.3594522
-0.47640911 -4 5.3482294
-0.52405 -4 5.3330522
-0.46822834 -4 5.3246083
-0.51505119 -4 5.3070693
-0.45887727 -4 5.3014259
-0.50476497 -4 5.2815685
-0.44837922 -4 5.2787399
-0.49321714 -4 5.2566137
-0.43676046 -4 5.2566066
-0.4804365 -4 5.2322674
-0.42405 -4 5.2350821
-0.46645501 -4 5.20859
-0.41027969 -4 5.2142196
-0.45130765 -4 5.1856413
-0.39548385 -4 5.1940713
-0.43503225 -4 5.1634784
-0.37969953 -4 5.1746874
-0.41766948 -4 5.1421561
-0.36296615 -4 5.156117
-0.39926276 -4 5.1217284
-0.34532556 -4 5.1384058
-0.37985811 -4 5.1022468
-0.3268218 -4 5.1215987
-0.35950398 -4 5.0837588
-0.3075012 -4 5.1057372
-0.33825129 -4 5.0663109
-0.28741199 -4 5.0908613
-0.31615317 -4 5.0499477
