# .PCD v0.7 - Point Cloud Data file format
VERSION 0.7
FIELDS x y z
SIZE 4 4 4
TYPE F F F
COUNT 1 1 1
WIDTH 2408
HEIGHT 1
VIEWPOINT 0 0 0 1 0 0 0
POINTS 2408
DATA ascii
12 -4.1500001 4.5
12.05 -4.1500001 4.5
11.95 -4.1500001 4.5500002
12 -4.1500001 4.5500002
12.05 -4.1500001 4.5500002
11.95 -4.1500001 4.5999999
12 -4.1500001 4.5999999
12.05 -4.1500001 4.5999999
11.95 -4.1500001 5.4499998
12 -4.1500001 5.4499998
12.05 -4.1500001 5.4499998
11.95 -4.1500001 5.5
12 -4.1500001 5.5
12.05 -4.1500001 5.5
11.95 -4.0999999 4.5
12 -4.0999999 4.5
12.05 -4.0999999 4.5
11.95 -4.0999999 4.5500002
12 -4.0999999 4.5500002
12.05 -4.0999999 4.5500002
11.95 -4.0999999 4.5999999
12 -4.0999999 4.5999999
12.05 -4.0999999 4.5999999
11.95 -4.0999999 5.4499998
12 -4.0999999 5.4499998
12.05 -4.0999999 5.4499998
11.95 -4.0999999 5.5
12 -4.0999999 5.5
12.05 -4.0999999 5.5
11.95 -4.0500002 4.5
12 -4.0500002 4.5
12.05 -4.0500002 4.5
11.95 -4.0500002 4.5500002
12 -4.0500002 4.5500002
12.05 -4.0500002 4.5500002
11.95 -4.0500002 4.5999999
12 -4.0500002 4.5999999
12.05 -4.0500002 4.5999999
11.95 -4.0500002 4.6500001
12 -4.0500002 4.6500001
12.05 -4.0500002 4.6500001
11.95 -4.0500002 4.6999998
12 -4.0500002 4.6999998
12.05 -4.0500002 4.6999998
11.95 -4.0500002 4.75
12 -4.0500002 4.75
12.05 -4.0500002 4.75
11.95 -4.0500002 4.8000002
12 -4.0500002 4.8000002
12.05 -4.0500002 4.8000002
11.95 -4.0500002 4.8499999
12 -4.0500002 4.8499999
12.05 -4.0500002 4.8499999
11.95 -4.0500002 4.9000001
12 -4.0500002 4.9000001
12.05 -4.0500002 4.9000001
11.95 -4.0500002 4.9499998
12 -4.0500002 4.9499998
12.05 -4.0500002 4.9499998
11.95 -4.0500002 5
12 -4.0500002 5
12.05 -4.0500002 5
11.95 -4.0500002 5.0500002
12 -4.0500002 5.0500002
12.05 -4.0500002 5.0500002
11.95 -4.0500002 5.0999999
12 -4.0500002 5.0999999
12.05 -4.0500002 5.0999999
11.95 -4.0500002 5.1500001
12 -4.0500002 5.1500001
12.05 -4.0500002 5.1500001
11.95 -4.0500002 5.1999998
12 -4.0500002 5.1999998
12.05 -4.0500002 5.1999998
11.95 -4.0500002 5.25
12 -4.0500002 5.25
12.05 -4.0500002 5.25
11.95 -4.0500002 5.3000002
12 -4.0500002 5.3000002
12.05 -4.0500002 5.3000002
11.95 -4.0500002 5.3499999
12 -4.0500002 5.3499999
12.05 -4.0500002 5.3499999
11.95 -4.0500002 5.4000001
12 -4.0500002 5.4000001
12.05 -4.0500002 5.4000001
11.95 -4.0500002 5.4499998
12 -4.0500002 5.4499998
12.05 -4.0500002 5.4499998
11.95 -4.0500002 5.5
12 -4.0500002 5.5
12.05 -4.0500002 5.5
11.95 -4 4.5
12 -4 4.5
12.05 -4 4.5
11.95 -4 4.5500002
12 -4 4.5500002
12.05 -4 4.5500002
11.95 -4 4.5999999
12 -4 4.5999999
12.05 -4 4.5999999
11.95 -4 4.6500001
12 -4 4.6500001
12.05 -4 4.6500001
11.95 -4 4.6999998
12 -4 4.6999998
12.05 -4 4.6999998
11.95 -4 4.75
12 -4 4.75
12.05 -4 4.75
11.95 -4 4.8000002
12 -4 4.8000002
12.05 -4 4.8000002
11.95 -4 4.8499999
12 -4 4.8499999
12.05 -4 4.8499999
11.95 -4 4.9000001
12 -4 4.9000001
12.05 -4 4.9000001
11.95 -4 4.9499998
12 -4 4.9499998
12.05 -4 4.9499998
11.95 -4 5
12 -4 5
12.05 -4 5
11.95 -4 5.0500002
12 -4 5.0500002
12.05 -4 5.0500002
11.95 -4 5.0999999
12 -4 5.0999999
12.05 -4 5.0999999
11.95 -4 5.1500001
12 -4 5.1500001
12.05 -4 5.1500001
11.95 -4 5.1999998
12 -4 5.1999998
12.05 -4 5.1999998
11.95 -4 5.25
12 -4 5.25
12.05 -4 5.25
11.95 -4 5.3000002
12 -4 5.3000002
12.05 -4 5.3000002
11.95 -4 5.3499999
12 -4 5.3499999
12.05 -4 5.3499999
11.95 -4 5.4000001
12 -4 5.4000001
12.05 -4 5.4000001
11.95 -4 5.4499998
12 -4 5.4499998
12.05 -4 5.4499998
11.95 -4 5.5
12 -4 5.5
12.05 -4 5.5
11.95 -3.5 4.5
12 -3.5 4.5
12.05 -3.5 4.5
11.95 -3.5 4.5500002
12 -3.5 4.5500002
12.05 -3.5 4.5500002
11.95 -3.5 4.5999999
12 -3.5 4.5999999
12.05 -3.5 4.5999999
11.95 -3.5 4.6500001
12 -3.5 4.6500001
12.05 -3.5 4.6500001
11.95 -3.5 4.6999998
12 -3.5 4.6999998
12.05 -3.5 4.6999998
11.95 -3.5 4.75
12 -3.5 4.75
12.05 -3.5 4.75
11.95 -3.5 4.8000002
12 -3.5 4.8000002
12.05 -3.5 4.8000002
11.95 -3.5 4.8499999
12 -3.5 4.8499999
12.05 -3.5 4.8499999
11.95 -3.5 4.9000001
12 -3.5 4.9000001
12.05 -3.5 4.9000001
11.95 -3.5 4.9499998
12 -3.5 4.9499998
12.05 -3.5 4.9499998
11.95 -3.5 5
12 -3.5 5
12.05 -3.5 5
11.95 -3.5 5.0500002
12 -3.5 5.0500002
12.05 -3.5 5.0500002
11.95 -3.5 5.0999999
12 -3.5 5.0999999
12.05 -3.5 5.0999999
11.95 -3.5 5.1500001
12 -3.5 5.1500001
12.05 -3.5 5.1500001
11.95 -3.5 5.1999998
12 -3.5 5.1999998
12.05 -3.5 5.1999998
11.95 -3.5 5.25
12 -3.5 5.25
12.05 -3.5 5.25
11.95 -3.5 5.3000002
12 -3.5 5.3000002
12.05 -3.5 5.3000002
11.95 -3.5 5.3499999
12 -3.5 5.3499999
12.05 -3.5 5.3499999
11.95 -3.5 5.4000001
12 -3.5 5.4000001
12.05 -3.5 5.4000001
11.95 -3.5 5.4499998
12 -3.5 5.4499998
12.05 -3.5 5.4499998
11.95 -3.5 5.5
12 -3.5 5.5
12.05 -3.5 5.5
11.95 -3.45 4.5
12 -3.45 4.5
12.05 -3.45 4.5
11.95 -3.45 4.5500002
12 -3.45 4.5500002
12.05 -3.45 4.5500002
11.95 -3.45 4.5999999
12 -3.45 4.5999999
12.05 -3.45 4.5999999
11.95 -3.45 4.6500001
12 -3.45 4.6500001
12.05 -3.45 4.6500001
11.95 -3.45 4.6999998
12 -3.45 4.6999998
12.05 -3.45 4.6999998
11.95 -3.45 4.75
12 -3.45 4.75
12.05 -3.45 4.75
11.95 -3.45 4.8000002
12 -3.45 4.8000002
12.05 -3.45 4.8000002
11.95 -3.45 4.8499999
12 -3.45 4.8499999
12.05 -3.45 4.8499999
11.95 -3.45 4.9000001
12 -3.45 4.9000001
12.05 -3.45 4.9000001
11.95 -3.45 4.9499998
12 -3.45 4.9499998
12.05 -3.45 4.9499998
11.95 -3.45 5
12 -3.45 5
12.05 -3.45 5
11.95 -3.45 5.0500002
12 -3.45 5.0500002
12.05 -3.45 5.0500002
11.95 -3.45 5.0999999
12 -3.45 5.0999999
12.05 -3.45 5.0999999
11.95 -3.45 5.1500001
12 -3.45 5.1500001
12.05 -3.45 5.1500001
11.95 -3.45 5.1999998
12 -3.45 5.1999998
12.05 -3.45 5.1999998
11.95 -3.45 5.25
12 -3.45 5.25
12.05 -3.45 5.25
11.95 -3.45 5.3000002
12 -3.45 5.3000002
12.05 -3.45 5.3000002
11.95 -3.45 5.3499999
12 -3.45 5.3499999
12.05 -3.45 5.3499999
11.95 -3.45 5.4000001
12 -3.45 5.4000001
12.05 -3.45 5.4000001
11.95 -3.45 5.4499998
12 -3.45 5.4499998
12.05 -3.45 5.4499998
11.95 -3.45 5.5
12 -3.45 5.5
12.05 -3.45 5.5
11.95 -3.4000001 4.5
12 -3.4000001 4.5
12.05 -3.4000001 4.5
11.95 -3.4000001 4.5500002
12 -3.4000001 4.5500002
12.05 -3.4000001 4.5500002
11.95 -3.4000001 4.5999999
12 -3.4000001 4.5999999
12.05 -3.4000001 4.5999999
11.95 -3.4000001 4.6500001
12 -3.4000001 4.6500001
12.05 -3.4000001 4.6500001
11.95 -3.4000001 4.6999998
12 -3.4000001 4.6999998
12.05 -3.4000001 4.6999998
11.95 -3.4000001 4.75
12 -3.4000001 4.75
12.05 -3.4000001 4.75
11.95 -3.4000001 4.8000002
12 -3.4000001 4.8000002
12.05 -3.4000001 4.8000002
11.95 -3.4000001 4.8499999
12 -3.4000001 4.8499999
12.05 -3.4000001 4.8499999
11.95 -3.4000001 4.9000001
12 -3.4000001 4.9000001
12.05 -3.4000001 4.9000001
11.95 -3.4000001 4.9499998
12 -3.4000001 4.9499998
12.05 -3.4000001 4.9499998
11.95 -3.4000001 5
12 -3.4000001 5
12.05 -3.4000001 5
11.95 -3.4000001 5.0500002
12 -3.4000001 5.0500002
12.05 -3.4000001 5.0500002
11.95 -3.4000001 5.0999999
12 -3.4000001 5.0999999
12.05 -3.4000001 5.0999999
11.95 -3.4000001 5.1500001
12 -3.4000001 5.1500001
12.05 -3.4000001 5.1500001
11.95 -3.4000001 5.1999998
12 -3.4000001 5.1999998
12.05 -3.4000001 5.1999998
11.95 -3.4000001 5.25
12 -3.4000001 5.25
12.05 -3.4000001 5.25
11.95 -3.4000001 5.3000002
12 -3.4000001 5.3000002
12.05 -3.4000001 5.3000002
11.95 -3.4000001 5.3499999
12 -3.4000001 5.3499999
12.05 -3.4000001 5.3499999
11.95 -3.4000001 5.4000001
12 -3.4000001 5.4000001
12.05 -3.4000001 5.4000001
11.95 -3.4000001 5.4499998
12 -3.4000001 5.4499998
12.05 -3.4000001 5.4499998
11.95 -3.4000001 5.5
12 -3.4000001 5.5
12.05 -3.4000001 5.5
11.95 -3.3499999 4.5
12 -3.3499999 4.5
12.05 -3.3499999 4.5
11.95 -3.3499999 4.5500002
12 -3.3499999 4.5500002
12.05 -3.3499999 4.5500002
11.95 -3.3499999 4.5999999
12 -3.3499999 4.5999999
12.05 -3.3499999 4.5999999
11.95 -3.3499999 5.4499998
12 -3.3499999 5.4499998
12.05 -3.3499999 5.4499998
11.95 -3.3499999 5.5
12 -3.3499999 5.5
12.05 -3.3499999 5.5
11.95 -3.3 4.5
12 -3.3 4.5
12.05 -3.3 4.5
11.95 -3.3 4.5500002
12 -3.3 4.5500002
12.05 -3.3 4.5500002
11.95 -3.3 4.5999999
12 -3.3 4.5999999
12.05 -3.3 4.5999999
11.95 -3.3 5.4499998
12 -3.3 5.4499998
12.05 -3.3 5.4499998
11.95 -3.3 5.5
12 -3.3 5.5
12.05 -3.3 5.5
11.95 -3.25 4.5
12 -3.25 4.5
12.05 -3.25 4.5
11.95 -3.25 4.5500002
12 -3.25 4.5500002
12.05 -3.25 4.5500002
11.95 -3.25 4.5999999
12 -3.25 4.5999999
12.05 -3.25 4.5999999
11.95 -3.25 5.4499998
12 -3.25 5.4499998
12.05 -3.25 5.4499998
11.95 -3.25 5.5
12 -3.25 5.5
12.05 -3.25 5.5
11.95 -3.2 4.5
12 -3.2 4.5
12.05 -3.2 4.5
11.95 -3.2 4.5500002
12 -3.2 4.5500002
12.05 -3.2 4.5500002
11.95 -3.2 4.5999999
12 -3.2 4.5999999
12.05 -3.2 4.5999999
11.95 -3.2 5.4499998
12 -3.2 5.4499998
12.05 -3.2 5.4499998
11.95 -3.2 5.5
12 -3.2 5.5
12.05 -3.2 5.5
11.95 -3.1500001 4.5
12 -3.1500001 4.5
12.05 -3.1500001 4.5
11.95 -3.1500001 4.5500002
12 -3.1500001 4.5500002
12.05 -3.1500001 4.5500002
11.95 -3.1500001 4.5999999
12 -3.1500001 4.5999999
12.05 -3.1500001 4.5999999
11.95 -3.1500001 5.4499998
12 -3.1500001 5.4499998
12.05 -3.1500001 5.4499998
11.95 -3.1500001 5.5
12 -3.1500001 5.5
12.05 -3.1500001 5.5
11.95 -3.0999999 4.5
12 -3.0999999 4.5
12.05 -3.0999999 4.5
11.95 -3.0999999 4.5500002
12 -3.0999999 4.5500002
12.05 -3.0999999 4.5500002
11.95 -3.0999999 4.5999999
12 -3.0999999 4.5999999
12.05 -3.0999999 4.5999999
11.95 -3.0999999 5.4499998
12 -3.0999999 5.4499998
12.05 -3.0999999 5.4499998
11.95 -3.0999999 5.5
12 -3.0999999 5.5
12.05 -3.0999999 5.5
11.95 -3.05 4.5
12 -3.05 4.5
12.05 -3.05 4.5
11.95 -3.05 4.5500002
12 -3.05 4.5500002
12.05 -3.05 4.5500002
11.95 -3.05 4.5999999
12 -3.05 4.5999999
12.05 -3.05 4.5999999
11.95 -3.05 5.4499998
12 -3.05 5.4499998
12.05 -3.05 5.4499998
11.95 -3.05 5.5
12 -3.05 5.5
12.05 -3.05 5.5
11.95 -3 4.5
12 -3 4.5
12.05 -3 4.5
11.95 -3 4.5500002
12 -3 4.5500002
12.05 -3 4.5500002
11.95 -3 4.5999999
12 -3 4.5999999
12.05 -3 4.5999999
11.95 -3 5.4499998
12 -3 5.4499998
12.05 -3 5.4499998
11.95 -3 5.5
12 -3 5.5
12.05 -3 5.5
11.95 -2.95 4.5
12 -2.95 4.5
12.05 -2.95 4.5
11.95 -2.95 4.5500002
12 -2.95 4.5500002
12.05 -2.95 4.5500002
11.95 -2.95 4.5999999
12 -2.95 4.5999999
12.05 -2.95 4.5999999
11.95 -2.95 5.4499998
12 -2.95 5.4499998
12.05 -2.95 5.4499998
11.95 -2.95 5.5
12 -2.95 5.5
12.05 -2.95 5.5
11.95 -2.9000001 4.5
12 -2.9000001 4.5
12.05 -2.9000001 4.5
11.95 -2.9000001 4.5500002
12 -2.9000001 4.5500002
12.05 -2.9000001 4.5500002
11.95 -2.9000001 4.5999999
12 -2.9000001 4.5999999
12.05 -2.9000001 4.5999999
11.95 -2.9000001 5.4499998
12 -2.9000001 5.4499998
12.05 -2.9000001 5.4499998
11.95 -2.9000001 5.5
12 -2.9000001 5.5
12.05 -2.9000001 5.5
11.95 -2.8499999 4.5
12 -2.8499999 4.5
12.05 -2.8499999 4.5
11.95 -2.8499999 4.5500002
12 -2.8499999 4.5500002
12.05 -2.8499999 4.5500002
11.95 -2.8499999 4.5999999
12 -2.8499999 4.5999999
12.05 -2.8499999 4.5999999
11.95 -2.8499999 5.4499998
12 -2.8499999 5.4499998
12.05 -2.8499999 5.4499998
11.95 -2.8499999 5.5
12 -2.8499999 5.5
12.05 -2.8499999 5.5
11.95 -2.8 4.5
12 -2.8 4.5
12.05 -2.8 4.5
11.95 -2.8 4.5500002
12 -2.8 4.5500002
12.05 -2.8 4.5500002
11.95 -2.8 4.5999999
12 -2.8 4.5999999
12.05 -2.8 4.5999999
11.95 -2.8 5.4499998
12 -2.8 5.4499998
12.05 -2.8 5.4499998
11.95 -2.8 5.5
12 -2.8 5.5
12.05 -2.8 5.5
11.95 -2.75 4.5
12 -2.75 4.5
12.05 -2.75 4.5
11.95 -2.75 4.5500002
12 -2.75 4.5500002
12.05 -2.75 4.5500002
11.95 -2.75 4.5999999
12 -2.75 4.5999999
12.05 -2.75 4.5999999
11.95 -2.75 5.4499998
12 -2.75 5.4499998
12.05 -2.75 5.4499998
11.95 -2.75 5.5
12 -2.75 5.5
12.05 -2.75 5.5
11.95 -2.7 4.5
12 -2.7 4.5
12.05 -2.7 4.5
11.95 -2.7 4.5500002
12 -2.7 4.5500002
12.05 -2.7 4.5500002
11.95 -2.7 4.5999999
12 -2.7 4.5999999
12.05 -2.7 4.5999999
11.95 -2.7 5.4499998
12 -2.7 5.4499998
12.05 -2.7 5.4499998
11.95 -2.7 5.5
12 -2.7 5.5
12.05 -2.7 5.5
11.95 -2.6500001 4.5
12 -2.6500001 4.5
12.05 -2.6500001 4.5
11.95 -2.6500001 4.5500002
12 -2.6500001 4.5500002
12.05 -2.6500001 4.5500002
11.95 -2.6500001 4.5999999
12 -2.6500001 4.5999999
12.05 -2.6500001 4.5999999
11.95 -2.6500001 5.4499998
12 -2.6500001 5.4499998
12.05 -2.6500001 5.4499998
11.95 -2.6500001 5.5
12 -2.6500001 5.5
12.05 -2.6500001 5.5
11.95 -2.5999999 4.5
12 -2.5999999 4.5
12.05 -2.5999999 4.5
11.95 -2.5999999 4.5500002
12 -2.5999999 4.5500002
12.05 -2.5999999 4.5500002
11.95 -2.5999999 4.5999999
12 -2.5999999 4.5999999
12.05 -2.5999999 4.5999999
11.95 -2.5999999 5.4499998
12 -2.5999999 5.4499998
12.05 -2.5999999 5.4499998
11.95 -2.5999999 5.5
12 -2.5999999 5.5
12.05 -2.5999999 5.5
11.95 -2.55 4.5
12 -2.55 4.5
12.05 -2.55 4.5
11.95 -2.55 4.5500002
12 -2.55 4.5500002
12.05 -2.55 4.5500002
11.95 -2.55 4.5999999
12 -2.55 4.5999999
12.05 -2.55 4.5999999
11.95 -2.55 4.6500001
12 -2.55 4.6500001
12.05 -2.55 4.6500001
11.95 -2.55 4.6999998
12 -2.55 4.6999998
12.05 -2.55 4.6999998
11.95 -2.55 4.75
12 -2.55 4.75
12.05 -2.55 4.75
11.95 -2.55 4.8000002
12 -2.55 4.8000002
12.05 -2.55 4.8000002
11.95 -2.55 4.8499999
12 -2.55 4.8499999
12.05 -2.55 4.8499999
11.95 -2.55 4.9000001
12 -2.55 4.9000001
12.05 -2.55 4.9000001
11.95 -2.55 4.9499998
12 -2.55 4.9499998
12.05 -2.55 4.9499998
11.95 -2.55 5
12 -2.55 5
12.05 -2.55 5
11.95 -2.55 5.0500002
12 -2.55 5.0500002
12.05 -2.55 5.0500002
11.95 -2.55 5.0999999
12 -2.55 5.0999999
12.05 -2.55 5.0999999
11.95 -2.55 5.1500001
12 -2.55 5.1500001
12.05 -2.55 5.1500001
11.95 -2.55 5.1999998
12 -2.55 5.1999998
12.05 -2.55 5.1999998
11.95 -2.55 5.25
12 -2.55 5.25
12.05 -2.55 5.25
11.95 -2.55 5.3000002
12 -2.55 5.3000002
12.05 -2.55 5.3000002
11.95 -2.55 5.3499999
12 -2.55 5.3499999
12.05 -2.55 5.3499999
11.95 -2.55 5.4000001
12 -2.55 5.4000001
12.05 -2.55 5.4000001
11.95 -2.55 5.4499998
12 -2.55 5.4499998
12.05 -2.55 5.4499998
11.95 -2.55 5.5
12 -2.55 5.5
12.05 -2.55 5.5
11.95 -2.5 4.5
12 -2.5 4.5
12.05 -2.5 4.5
11.95 -2.5 4.5500002
12 -2.5 4.5500002
12.05 -2.5 4.5500002
11.95 -2.5 4.5999999
12 -2.5 4.5999999
12.05 -2.5 4.5999999
11.95 -2.5 4.6500001
12 -2.5 4.6500001
12.05 -2.5 4.6500001
11.95 -2.5 4.6999998
12 -2.5 4.6999998
12.05 -2.5 4.6999998
11.95 -2.5 4.75
12 -2.5 4.75
12.05 -2.5 4.75
11.95 -2.5 4.8000002
12 -2.5 4.8000002
12.05 -2.5 4.8000002
11.95 -2.5 4.8499999
12 -2.5 4.8499999
12.05 -2.5 4.8499999
11.95 -2.5 4.9000001
12 -2.5 4.9000001
12.05 -2.5 4.9000001
11.95 -2.5 4.9499998
12 -2.5 4.9499998
12.05 -2.5 4.9499998
11.95 -2.5 5
12 -2.5 5
12.05 -2.5 5
11.95 -2.5 5.0500002
12 -2.5 5.0500002
12.05 -2.5 5.0500002
11.95 -2.5 5.0999999
12 -2.5 5.0999999
12.05 -2.5 5.0999999
11.95 -2.5 5.1500001
12 -2.5 5.1500001
12.05 -2.5 5.1500001
11.95 -2.5 5.1999998
12 -2.5 5.1999998
12.05 -2.5 5.1999998
11.95 -2.5 5.25
12 -2.5 5.25
12.05 -2.5 5.25
11.95 -2.5 5.3000002
12 -2.5 5.3000002
12.05 -2.5 5.3000002
11.95 -2.5 5.3499999
12 -2.5 5.3499999
12.05 -2.5 5.3499999
11.95 -2.5 5.4000001
12 -2.5 5.4000001
12.05 -2.5 5.4000001
11.95 -2.5 5.4499998
12 -2.5 5.4499998
12.05 -2.5 5.4499998
11.95 -2.5 5.5
12 -2.5 5.5
12.05 -2.5 5.5
11.95 -2 4.5
12 -2 4.5
12.05 -2 4.5
11.95 -2 4.5500002
12 -2 4.5500002
12.05 -2 4.5500002
11.95 -2 4.5999999
12 -2 4.5999999
12.05 -2 4.5999999
11.95 -2 4.6500001
12 -2 4.6500001
12.05 -2 4.6500001
11.95 -2 4.6999998
12 -2 4.6999998
12.05 -2 4.6999998
11.95 -2 4.75
12 -2 4.75
12.05 -2 4.75
11.95 -2 4.8000002
12 -2 4.8000002
12.05 -2 4.8000002
11.95 -2 4.8499999
12 -2 4.8499999
12.05 -2 4.8499999
11.95 -2 4.9000001
12 -2 4.9000001
12.05 -2 4.9000001
11.95 -2 4.9499998
12 -2 4.9499998
12.05 -2 4.9499998
11.95 -2 5
12 -2 5
12.05 -2 5
11.95 -2 5.0500002
12 -2 5.0500002
12.05 -2 5.0500002
11.95 -2 5.0999999
12 -2 5.0999999
12.05 -2 5.0999999
11.95 -2 5.1500001
12 -2 5.1500001
12.05 -2 5.1500001
11.95 -2 5.1999998
12 -2 5.1999998
12.05 -2 5.1999998
11.95 -2 5.25
12 -2 5.25
12.05 -2 5.25
11.95 -2 5.3000002
12 -2 5.3000002
12.05 -2 5.3000002
11.95 -2 5.3499999
12 -2 5.3499999
12.05 -2 5.3499999
11.95 -2 5.4000001
12 -2 5.4000001
12.05 -2 5.4000001
11.95 -2 5.4499998
12 -2 5.4499998
12.05 -2 5.4499998
11.95 -2 5.5
12 -2 5.5
12.05 -2 5.5
11.95 -1.95 4.5
12 -1.95 4.5
12.05 -1.95 4.5
11.95 -1.95 4.5500002
12 -1.95 4.5500002
12.05 -1.95 4.5500002
11.95 -1.95 4.5999999
12 -1.95 4.5999999
12.05 -1.95 4.5999999
11.95 -1.95 4.6500001
12 -1.95 4.6500001
12.05 -1.95 4.6500001
11.95 -1.95 4.6999998
12 -1.95 4.6999998
12.05 -1.95 4.6999998
11.95 -1.95 4.75
12 -1.95 4.75
12.05 -1.95 4.75
11.95 -1.95 4.8000002
12 -1.95 4.8000002
12.05 -1.95 4.8000002
11.95 -1.95 4.8499999
12 -1.95 4.8499999
12.05 -1.95 4.8499999
11.95 -1.95 4.9000001
12 -1.95 4.9000001
12.05 -1.95 4.9000001
11.95 -1.95 4.9499998
12 -1.95 4.9499998
12.05 -1.95 4.9499998
11.95 -1.95 5
12 -1.95 5
12.05 -1.95 5
11.95 -1.95 5.0500002
12 -1.95 5.0500002
12.05 -1.95 5.0500002
11.95 -1.95 5.0999999
12 -1.95 5.0999999
12.05 -1.95 5.0999999
11.95 -1.95 5.1500001
12 -1.95 5.1500001
12.05 -1.95 5.1500001
11.95 -1.95 5.1999998
12 -1.95 5.1999998
12.05 -1.95 5.1999998
11.95 -1.95 5.25
12 -1.95 5.25
12.05 -1.95 5.25
11.95 -1.95 5.3000002
12 -1.95 5.3000002
12.05 -1.95 5.3000002
11.95 -1.95 5.3499999
12 -1.95 5.3499999
12.05 -1.95 5.3499999
11.95 -1.95 5.4000001
12 -1.95 5.4000001
12.05 -1.95 5.4000001
11.95 -1.95 5.4499998
12 -1.95 5.4499998
12.05 -1.95 5.4499998
11.95 -1.95 5.5
12 -1.95 5.5
12.05 -1.95 5.5
11.95 -1.9 4.5
12 -1.9 4.5
12.05 -1.9 4.5
11.95 -1.9 4.5500002
12 -1.9 4.5500002
12.05 -1.9 4.5500002
11.95 -1.9 4.5999999
12 -1.9 4.5999999
12.05 -1.9 4.5999999
11.95 -1.9 4.6500001
12 -1.9 4.6500001
12.05 -1.9 4.6500001
11.95 -1.9 4.6999998
12 -1.9 4.6999998
12.05 -1.9 4.6999998
11.95 -1.9 4.75
12 -1.9 4.75
12.05 -1.9 4.75
11.95 -1.9 4.8000002
12 -1.9 4.8000002
12.05 -1.9 4.8000002
11.95 -1.9 4.8499999
12 -1.9 4.8499999
12.05 -1.9 4.8499999
11.95 -1.9 4.9000001
12 -1.9 4.9000001
12.05 -1.9 4.9000001
11.95 -1.9 4.9499998
12 -1.9 4.9499998
12.05 -1.9 4.9499998
11.95 -1.9 5
12 -1.9 5
12.05 -1.9 5
11.95 -1.9 5.0500002
12 -1.9 5.0500002
12.05 -1.9 5.0500002
11.95 -1.9 5.0999999
12 -1.9 5.0999999
12.05 -1.9 5.0999999
11.95 -1.9 5.1500001
12 -1.9 5.1500001
12.05 -1.9 5.1500001
11.95 -1.9 5.1999998
12 -1.9 5.1999998
12.05 -1.9 5.1999998
11.95 -1.9 5.25
12 -1.9 5.25
12.05 -1.9 5.25
11.95 -1.9 5.3000002
12 -1.9 5.3000002
12.05 -1.9 5.3000002
11.95 -1.9 5.3499999
12 -1.9 5.3499999
12.05 -1.9 5.3499999
11.95 -1.9 5.4000001
12 -1.9 5.4000001
12.05 -1.9 5.4000001
11.95 -1.9 5.4499998
12 -1.9 5.4499998
12.05 -1.9 5.4499998
11.95 -1.9 5.5
12 -1.9 5.5
12.05 -1.9 5.5
11.95 -1.85 4.5
12 -1.85 4.5
12.05 -1.85 4.5
11.95 -1.85 4.5500002
12 -1.85 4.5500002
12.05 -1.85 4.5500002
11.95 -1.85 4.5999999
12 -1.85 4.5999999
12.05 -1.85 4.5999999
11.95 -1.85 5.4499998
12 -1.85 5.4499998
12.05 -1.85 5.4499998
11.95 -1.85 5.5
12 -1.85 5.5
12.05 -1.85 5.5
11.95 -1.8 4.5
12 -1.8 4.5
12.05 -1.8 4.5
11.95 -1.8 4.5500002
12 -1.8 4.5500002
12.05 -1.8 4.5500002
11.95 -1.8 4.5999999
12 -1.8 4.5999999
12.05 -1.8 4.5999999
11.95 -1.8 5.4499998
12 -1.8 5.4499998
12.05 -1.8 5.4499998
11.95 -1.8 5.5
12 -1.8 5.5
12.05 -1.8 5.5
11.95 -1.75 4.5
12 -1.75 4.5
12.05 -1.75 4.5
11.95 -1.75 4.5500002
12 -1.75 4.5500002
12.05 -1.75 4.5500002
11.95 -1.75 4.5999999
12 -1.75 4.5999999
12.05 -1.75 4.5999999
11.95 -1.75 5.4499998
12 -1.75 5.4499998
12.05 -1.75 5.4499998
11.95 -1.75 5.5
12 -1.75 5.5
12.05 -1.75 5.5
11.95 -1.7 4.5
12 -1.7 4.5
12.05 -1.7 4.5
11.95 -1.7 4.5500002
12 -1.7 4.5500002
12.05 -1.7 4.5500002
11.95 -1.7 4.5999999
12 -1.7 4.5999999
12.05 -1.7 4.5999999
11.95 -1.7 5.4499998
12 -1.7 5.4499998
12.05 -1.7 5.4499998
11.95 -1.7 5.5
12 -1.7 5.5
12.05 -1.7 5.5
11.95 -1.65 4.5
12 -1.65 4.5
12.05 -1.65 4.5
11.95 -1.65 4.5500002
12 -1.65 4.5500002
12.05 -1.65 4.5500002
11.95 -1.65 4.5999999
12 -1.65 4.5999999
12.05 -1.65 4.5999999
11.95 -1.65 5.4499998
12 -1.65 5.4499998
12.05 -1.65 5.4499998
11.95 -1.65 5.5
12 -1.65 5.5
12.05 -1.65 5.5
11.95 -1.6 4.5
12 -1.6 4.5
12.05 -1.6 4.5
11.95 -1.6 4.5500002
12 -1.6 4.5500002
12.05 -1.6 4.5500002
11.95 -1.6 4.5999999
12 -1.6 4.5999999
12.05 -1.6 4.5999999
11.95 -1.6 5.4499998
12 -1.6 5.4499998
12.05 -1.6 5.4499998
11.95 -1.6 5.5
12 -1.6 5.5
12.05 -1.6 5.5
11.95 -1.55 4.5
12 -1.55 4.5
12.05 -1.55 4.5
11.95 -1.55 4.5500002
12 -1.55 4.5500002
12.05 -1.55 4.5500002
11.95 -1.55 4.5999999
12 -1.55 4.5999999
12.05 -1.55 4.5999999
11.95 -1.55 5.4499998
12 -1.55 5.4499998
12.05 -1.55 5.4499998
11.95 -1.55 5.5
12 -1.55 5.5
12.05 -1.55 5.5
11.95 -1.5 4.5
12 -1.5 4.5
12.05 -1.5 4.5
11.95 -1.5 4.5500002
12 -1.5 4.5500002
12.05 -1.5 4.5500002
11.95 -1.5 4.5999999
12 -1.5 4.5999999
12.05 -1.5 4.5999999
11.95 -1.5 5.4499998
12 -1.5 5.4499998
12.05 -1.5 5.4499998
11.95 -1.5 5.5
12 -1.5 5.5
12.05 -1.5 5.5
11.95 -1.45 4.5
12 -1.45 4.5
12.05 -1.45 4.5
11.95 -1.45 4.5500002
12 -1.45 4.5500002
12.05 -1.45 4.5500002
11.95 -1.45 4.5999999
12 -1.45 4.5999999
12.05 -1.45 4.5999999
11.95 -1.45 5.4499998
12 -1.45 5.4499998
12.05 -1.45 5.4499998
11.95 -1.45 5.5
12 -1.45 5.5
12.05 -1.45 5.5
11.95 -1.4 4.5
12 -1.4 4.5
12.05 -1.4 4.5
11.95 -1.4 4.5500002
12 -1.4 4.5500002
12.05 -1.4 4.5500002
11.95 -1.4 4.5999999
12 -1.4 4.5999999
12.05 -1.4 4.5999999
11.95 -1.4 5.4499998
12 -1.4 5.4499998
12.05 -1.4 5.4499998
11.95 -1.4 5.5
12 -1.4 5.5
12.05 -1.4 5.5
11.95 -1.35 4.5
12 -1.35 4.5
12.05 -1.35 4.5
11.95 -1.35 4.5500002
12 -1.35 4.5500002
12.05 -1.35 4.5500002
11.95 -1.35 4.5999999
12 -1.35 4.5999999
12.05 -1.35 4.5999999
11.95 -1.35 5.4499998
12 -1.35 5.4499998
12.05 -1.35 5.4499998
11.95 -1.35 5.5
12 -1.35 5.5
12.05 -1.35 5.5
11.95 -1.3 4.5
12 -1.3 4.5
12.05 -1.3 4.5
11.95 -1.3 4.5500002
12 -1.3 4.5500002
12.05 -1.3 4.5500002
11.95 -1.3 4.5999999
12 -1.3 4.5999999
12.05 -1.3 4.5999999
11.95 -1.3 5.4499998
12 -1.3 5.4499998
12.05 -1.3 5.4499998
11.95 -1.3 5.5
12 -1.3 5.5
12.05 -1.3 5.5
11.95 -1.25 4.5
12 -1.25 4.5
12.05 -1.25 4.5
11.95 -1.25 4.5500002
12 -1.25 4.5500002
12.05 -1.25 4.5500002
11.95 -1.25 4.5999999
12 -1.25 4.5999999
12.05 -1.25 4.5999999
11.95 -1.25 5.4499998
12 -1.25 5.4499998
12.05 -1.25 5.4499998
11.95 -1.25 5.5
12 -1.25 5.5
12.05 -1.25 5.5
11.95 -1.2 4.5
12 -1.2 4.5
12.05 -1.2 4.5
11.95 -1.2 4.5500002
12 -1.2 4.5500002
12.05 -1.2 4.5500002
11.95 -1.2 4.5999999
12 -1.2 4.5999999
12.05 -1.2 4.5999999
11.95 -1.2 5.4499998
12 -1.2 5.4499998
12.05 -1.2 5.4499998
11.95 -1.2 5.5
12 -1.2 5.5
12.05 -1.2 5.5
11.95 -1.15 4.5
12 -1.15 4.5
12.05 -1.15 4.5
11.95 -1.15 4.5500002
12 -1.15 4.5500002
12.05 -1.15 4.5500002
11.95 -1.15 4.5999999
12 -1.15 4.5999999
12.05 -1.15 4.5999999
11.95 -1.15 5.4499998
12 -1.15 5.4499998
12.05 -1.15 5.4499998
11.95 -1.15 5.5
12 -1.15 5.5
12.05 -1.15 5.5
11.95 -1.1 4.5
12 -1.1 4.5
12.05 -1.1 4.5
11.95 -1.1 4.5500002
12 -1.1 4.5500002
12.05 -1.1 4.5500002
11.95 -1.1 4.5999999
12 -1.1 4.5999999
12.05 -1.1 4.5999999
11.95 -1.1 4.6500001
12 -1.1 4.6500001
12.05 -1.1 4.6500001
11.95 -1.1 4.6999998
12 -1.1 4.6999998
12.05 -1.1 4.6999998
11.95 -1.1 4.75
12 -1.1 4.75
12.05 -1.1 4.75
11.95 -1.1 4.8000002
12 -1.1 4.8000002
12.05 -1.1 4.8000002
11.95 -1.1 4.8499999
12 -1.1 4.8499999
12.05 -1.1 4.8499999
11.95 -1.1 4.9000001
12 -1.1 4.9000001
12.05 -1.1 4.9000001
11.95 -1.1 4.9499998
12 -1.1 4.9499998
12.05 -1.1 4.9499998
11.95 -1.1 5
12 -1.1 5
12.05 -1.1 5
11.95 -1.1 5.0500002
12 -1.1 5.0500002
12.05 -1.1 5.0500002
11.95 -1.1 5.0999999
12 -1.1 5.0999999
12.05 -1.1 5.0999999
11.95 -1.1 5.1500001
12 -1.1 5.1500001
12.05 -1.1 5.1500001
11.95 -1.1 5.1999998
12 -1.1 5.1999998
12.05 -1.1 5.1999998
11.95 -1.1 5.25
12 -1.1 5.25
12.05 -1.1 5.25
11.95 -1.1 5.3000002
12 -1.1 5.3000002
12.05 -1.1 5.3000002
11.95 -1.1 5.3499999
12 -1.1 5.3499999
12.05 -1.1 5.3499999
11.95 -1.1 5.4000001
12 -1.1 5.4000001
12.05 -1.1 5.4000001
11.95 -1.1 5.4499998
12 -1.1 5.4499998
12.05 -1.1 5.4499998
11.95 -1.1 5.5
12 -1.1 5.5
12.05 -1.1 5.5
11.95 -1.05 4.5
12 -1.05 4.5
12.05 -1.05 4.5
11.95 -1.05 4.5500002
12 -1.05 4.5500002
12.05 -1.05 4.5500002
11.95 -1.05 4.5999999
12 -1.05 4.5999999
12.05 -1.05 4.5999999
11.95 -1.05 4.6500001
12 -1.05 4.6500001
12.05 -1.05 4.6500001
11.95 -1.05 4.6999998
12 -1.05 4.6999998
12.05 -1.05 4.6999998
11.95 -1.05 4.75
12 -1.05 4.75
12.05 -1.05 4.75
11.95 -1.05 4.8000002
12 -1.05 4.8000002
12.05 -1.05 4.8000002
11.95 -1.05 4.8499999
12 -1.05 4.8499999
12.05 -1.05 4.8499999
11.95 -1.05 4.9000001
12 -1.05 4.9000001
12.05 -1.05 4.9000001
11.95 -1.05 4.9499998
12 -1.05 4.9499998
12.05 -1.05 4.9499998
11.95 -1.05 5
12 -1.05 5
12.05 -1.05 5
11.95 -1.05 5.0500002
12 -1.05 5.0500002
12.05 -1.05 5.0500002
11.95 -1.05 5.0999999
12 -1.05 5.0999999
12.05 -1.05 5.0999999
11.95 -1.05 5.1500001
12 -1.05 5.1500001
12.05 -1.05 5.1500001
11.95 -1.05 5.1999998
12 -1.05 5.1999998
12.05 -1.05 5.1999998
11.95 -1.05 5.25
12 -1.05 5.25
12.05 -1.05 5.25
11.95 -1.05 5.3000002
12 -1.05 5.3000002
12.05 -1.05 5.3000002
11.95 -1.05 5.3499999
12 -1.05 5.3499999
12.05 -1.05 5.3499999
11.95 -1.05 5.4000001
12 -1.05 5.4000001
12.05 -1.05 5.4000001
11.95 -1.05 5.4499998
12 -1.05 5.4499998
12.05 -1.05 5.4499998
11.95 -1.05 5.5
12 -1.05 5.5
12.05 -1.05 5.5
11.95 -0.5 4.5
12 -0.5 4.5
12.05 -0.5 4.5
11.95 -0.5 4.5500002
12 -0.5 4.5500002
12.05 -0.5 4.5500002
11.95 -0.5 4.5999999
12 -0.5 4.5999999
12.05 -0.5 4.5999999
11.95 -0.5 4.6500001
12 -0.5 4.6500001
12.05 -0.5 4.6500001
11.95 -0.5 4.6999998
12 -0.5 4.6999998
12.05 -0.5 4.6999998
11.95 -0.5 4.75
12 -0.5 4.75
12.05 -0.5 4.75
11.95 -0.5 4.8000002
12 -0.5 4.8000002
12.05 -0.5 4.8000002
11.95 -0.5 4.8499999
12 -0.5 4.8499999
12.05 -0.5 4.8499999
11.95 -0.5 4.9000001
12 -0.5 4.9000001
12.05 -0.5 4.9000001
11.95 -0.5 4.9499998
12 -0.5 4.9499998
12.05 -0.5 4.9499998
11.95 -0.5 5
12 -0.5 5
12.05 -0.5 5
11.95 -0.5 5.0500002
12 -0.5 5.0500002
12.05 -0.5 5.0500002
11.95 -0.5 5.0999999
12 -0.5 5.0999999
12.05 -0.5 5.0999999
11.95 -0.5 5.1500001
12 -0.5 5.1500001
12.05 -0.5 5.1500001
11.95 -0.5 5.1999998
12 -0.5 5.1999998
12.05 -0.5 5.1999998
11.95 -0.5 5.25
12 -0.5 5.25
12.05 -0.5 5.25
11.95 -0.5 5.3000002
12 -0.5 5.3000002
12.05 -0.5 5.3000002
11.95 -0.5 5.3499999
12 -0.5 5.3499999
12.05 -0.5 5.3499999
11.95 -0.5 5.4000001
12 -0.5 5.4000001
12.05 -0.5 5.4000001
11.95 -0.5 5.4499998
12 -0.5 5.4499998
12.05 -0.5 5.4499998
11.95 -0.5 5.5
12 -0.5 5.5
12.05 -0.5 5.5
11.95 -0.44999999 4.5
12 -0.44999999 4.5
12.05 -0.44999999 4.5
11.95 -0.44999999 4.5500002
12 -0.44999999 4.5500002
12.05 -0.44999999 4.5500002
11.95 -0.44999999 4.5999999
12 -0.44999999 4.5999999
12.05 -0.44999999 4.5999999
11.95 -0.44999999 4.6500001
12 -0.44999999 4.6500001
12.05 -0.44999999 4.6500001
11.95 -0.44999999 4.6999998
12 -0.44999999 4.6999998
12.05 -0.44999999 4.6999998
11.95 -0.44999999 4.75
12 -0.44999999 4.75
12.05 -0.44999999 4.75
11.95 -0.44999999 4.8000002
12 -0.44999999 4.8000002
12.05 -0.44999999 4.8000002
11.95 -0.44999999 4.8499999
12 -0.44999999 4.8499999
12.05 -0.44999999 4.8499999
11.95 -0.44999999 4.9000001
12 -0.44999999 4.9000001
12.05 -0.44999999 4.9000001
11.95 -0.44999999 4.9499998
12 -0.44999999 4.9499998
12.05 -0.44999999 4.9499998
11.95 -0.44999999 5
12 -0.44999999 5
12.05 -0.44999999 5
11.95 -0.44999999 5.0500002
12 -0.44999999 5.0500002
12.05 -0.44999999 5.0500002
11.95 -0.44999999 5.0999999
12 -0.44999999 5.0999999
12.05 -0.44999999 5.0999999
11.95 -0.44999999 5.1500001
12 -0.44999999 5.1500001
12.05 -0.44999999 5.1500001
11.95 -0.44999999 5.1999998
12 -0.44999999 5.1999998
12.05 -0.44999999 5.1999998
11.95 -0.44999999 5.25
12 -0.44999999 5.25
12.05 -0.44999999 5.25
11.95 -0.44999999 5.3000002
12 -0.44999999 5.3000002
12.05 -0.44999999 5.3000002
11.95 -0.44999999 5.3499999
12 -0.44999999 5.3499999
12.05 -0.44999999 5.3499999
11.95 -0.44999999 5.4000001
12 -0.44999999 5.4000001
12.05 -0.44999999 5.4000001
11.95 -0.44999999 5.4499998
12 -0.44999999 5.4499998
12.05 -0.44999999 5.4499998
11.95 -0.44999999 5.5
12 -0.44999999 5.5
12.05 -0.44999999 5.5
11.95 -0.40000001 4.5
12 -0.40000001 4.5
12.05 -0.40000001 4.5
11.95 -0.40000001 4.5500002
12 -0.40000001 4.5500002
12.05 -0.40000001 4.5500002
11.95 -0.40000001 4.5999999
12 -0.40000001 4.5999999
12.05 -0.40000001 4.5999999
11.95 -0.40000001 4.6500001
12 -0.40000001 4.6500001
12.05 -0.40000001 4.6500001
11.95 -0.40000001 4.6999998
12 -0.40000001 4.6999998
12.05 -0.40000001 4.6999998
11.95 -0.40000001 4.75
12 -0.40000001 4.75
12.05 -0.40000001 4.75
11.95 -0.40000001 4.8000002
12 -0.40000001 4.8000002
12.05 -0.40000001 4.8000002
11.95 -0.40000001 4.8499999
12 -0.40000001 4.8499999
12.05 -0.40000001 4.8499999
11.95 -0.40000001 4.9000001
12 -0.40000001 4.9000001
12.05 -0.40000001 4.9000001
11.95 -0.40000001 4.9499998
12 -0.40000001 4.9499998
12.05 -0.40000001 4.9499998
11.95 -0.40000001 5
12 -0.40000001 5
12.05 -0.40000001 5
11.95 -0.40000001 5.0500002
12 -0.40000001 5.0500002
12.05 -0.40000001 5.0500002
11.95 -0.40000001 5.0999999
12 -0.40000001 5.0999999
12.05 -0.40000001 5.0999999
11.95 -0.40000001 5.1500001
12 -0.40000001 5.1500001
12.05 -0.40000001 5.1500001
11.95 -0.40000001 5.1999998
12 -0.40000001 5.1999998
12.05 -0.40000001 5.1999998
11.95 -0.40000001 5.25
12 -0.40000001 5.25
12.05 -0.40000001 5.25
11.95 -0.40000001 5.3000002
12 -0.40000001 5.3000002
12.05 -0.40000001 5.3000002
11.95 -0.40000001 5.3499999
12 -0.40000001 5.3499999
12.05 -0.40000001 5.3499999
11.95 -0.40000001 5.4000001
12 -0.40000001 5.4000001
12.05 -0.40000001 5.4000001
11.95 -0.40000001 5.4499998
12 -0.40000001 5.4499998
12.05 -0.40000001 5.4499998
11.95 -0.40000001 5.5
12 -0.40000001 5.5
12.05 -0.40000001 5.5
11.95 -0.34999999 4.5
12 -0.34999999 4.5
12.05 -0.34999999 4.5
11.95 -0.34999999 4.5500002
12 -0.34999999 4.5500002
12.05 -0.34999999 4.5500002
11.95 -0.34999999 4.5999999
12 -0.34999999 4.5999999
12.05 -0.34999999 4.5999999
11.95 -0.34999999 5.4499998
12 -0.34999999 5.4499998
12.05 -0.34999999 5.4499998
11.95 -0.34999999 5.5
12 -0.34999999 5.5
12.05 -0.34999999 5.5
11.95 -0.30000001 4.5
12 -0.30000001 4.5
12.05 -0.30000001 4.5
11.95 -0.30000001 4.5500002
12 -0.30000001 4.5500002
12.05 -0.30000001 4.5500002
11.95 -0.30000001 4.5999999
12 -0.30000001 4.5999999
12.05 -0.30000001 4.5999999
11.95 -0.30000001 5.4499998
12 -0.30000001 5.4499998
12.05 -0.30000001 5.4499998
11.95 -0.30000001 5.5
12 -0.30000001 5.5
12.05 -0.30000001 5.5
11.95 -0.25 4.5
12 -0.25 4.5
12.05 -0.25 4.5
11.95 -0.25 4.5500002
12 -0.25 4.5500002
12.05 -0.25 4.5500002
11.95 -0.25 4.5999999
12 -0.25 4.5999999
12.05 -0.25 4.5999999
11.95 -0.25 5.4499998
12 -0.25 5.4499998
12.05 -0.25 5.4499998
11.95 -0.25 5.5
12 -0.25 5.5
12.05 -0.25 5.5
11.95 -0.2 4.5
12 -0.2 4.5
12.05 -0.2 4.5
11.95 -0.2 4.5500002
12 -0.2 4.5500002
12.05 -0.2 4.5500002
11.95 -0.2 4.5999999
12 -0.2 4.5999999
12.05 -0.2 4.5999999
11.95 -0.2 5.4499998
12 -0.2 5.4499998
12.05 -0.2 5.4499998
11.95 -0.2 5.5
12 -0.2 5.5
12.05 -0.2 5.5
11.95 -0.15000001 4.5
12 -0.15000001 4.5
12.05 -0.15000001 4.5
11.95 -0.15000001 4.5500002
12 -0.15000001 4.5500002
12.05 -0.15000001 4.5500002
11.95 -0.15000001 4.5999999
12 -0.15000001 4.5999999
12.05 -0.15000001 4.5999999
11.95 -0.15000001 5.4499998
12 -0.15000001 5.4499998
12.05 -0.15000001 5.4499998
11.95 -0.15000001 5.5
12 -0.15000001 5.5
12.05 -0.15000001 5.5
11.95 -0.1 4.5
12 -0.1 4.5
12.05 -0.1 4.5
11.95 -0.1 4.5500002
12 -0.1 4.5500002
12.05 -0.1 4.5500002
11.95 -0.1 4.5999999
12 -0.1 4.5999999
12.05 -0.1 4.5999999
11.95 -0.1 5.4499998
12 -0.1 5.4499998
12.05 -0.1 5.4499998
11.95 -0.1 5.5
12 -0.1 5.5
12.05 -0.1 5.5
11.95 -0.050000001 4.5
12 -0.050000001 4.5
12.05 -0.050000001 4.5
11.95 -0.050000001 4.5500002
12 -0.050000001 4.5500002
12.05 -0.050000001 4.5500002
11.95 -0.050000001 4.5999999
12 -0.050000001 4.5999999
12.05 -0.050000001 4.5999999
11.95 -0.050000001 5.4499998
12 -0.050000001 5.4499998
12.05 -0.050000001 5.4499998
11.95 -0.050000001 5.5
12 -0.050000001 5.5
12.05 -0.050000001 5.5
11.95 -6.9388939e-17 4.5
12 -6.9388939e-17 4.5
12.05 -6.9388939e-17 4.5
11.95 -6.9388939e-17 4.5500002
12 -6.9388939e-17 4.5500002
12.05 -6.9388939e-17 4.5500002
11.95 -6.9388939e-17 4.5999999
12 -6.9388939e-17 4.5999999
12.05 -6.9388939e-17 4.5999999
11.95 -6.9388939e-17 5.4499998
12 -6.9388939e-17 5.4499998
12.05 -6.9388939e-17 5.4499998
11.95 -6.9388939e-17 5.5
12 -6.9388939e-17 5.5
12.05 -6.9388939e-17 5.5
11.95 0.050000001 4.5
12 0.050000001 4.5
12.05 0.050000001 4.5
11.95 0.050000001 4.5500002
12 0.050000001 4.5500002
12.05 0.050000001 4.5500002
11.95 0.050000001 4.5999999
12 0.050000001 4.5999999
12.05 0.050000001 4.5999999
11.95 0.050000001 5.4499998
12 0.050000001 5.4499998
12.05 0.050000001 5.4499998
11.95 0.050000001 5.5
12 0.050000001 5.5
12.05 0.050000001 5.5
11.95 0.1 4.5
12 0.1 4.5
12.05 0.1 4.5
11.95 0.1 4.5500002
12 0.1 4.5500002
12.05 0.1 4.5500002
11.95 0.1 4.5999999
12 0.1 4.5999999
12.05 0.1 4.5999999
11.95 0.1 5.4499998
12 0.1 5.4499998
12.05 0.1 5.4499998
11.95 0.1 5.5
12 0.1 5.5
12.05 0.1 5.5
11.95 0.15000001 4.5
12 0.15000001 4.5
12.05 0.15000001 4.5
11.95 0.15000001 4.5500002
12 0.15000001 4.5500002
12.05 0.15000001 4.5500002
11.95 0.15000001 4.5999999
12 0.15000001 4.5999999
12.05 0.15000001 4.5999999
11.95 0.15000001 5.4499998
12 0.15000001 5.4499998
12.05 0.15000001 5.4499998
11.95 0.15000001 5.5
12 0.15000001 5.5
12.05 0.15000001 5.5
11.95 0.2 4.5
12 0.2 4.5
12.05 0.2 4.5
11.95 0.2 4.5500002
12 0.2 4.5500002
12.05 0.2 4.5500002
11.95 0.2 4.5999999
12 0.2 4.5999999
12.05 0.2 4.5999999
11.95 0.2 5.4499998
12 0.2 5.4499998
12.05 0.2 5.4499998
11.95 0.2 5.5
12 0.2 5.5
12.05 0.2 5.5
11.95 0.25 4.5
12 0.25 4.5
12.05 0.25 4.5
11.95 0.25 4.5500002
12 0.25 4.5500002
12.05 0.25 4.5500002
11.95 0.25 4.5999999
12 0.25 4.5999999
12.05 0.25 4.5999999
11.95 0.25 5.4499998
12 0.25 5.4499998
12.05 0.25 5.4499998
11.95 0.25 5.5
12 0.25 5.5
12.05 0.25 5.5
11.95 0.30000001 4.5
12 0.30000001 4.5
12.05 0.30000001 4.5
11.95 0.30000001 4.5500002
12 0.30000001 4.5500002
12.05 0.30000001 4.5500002
11.95 0.30000001 4.5999999
12 0.30000001 4.5999999
12.05 0.30000001 4.5999999
11.95 0.30000001 5.4499998
12 0.30000001 5.4499998
12.05 0.30000001 5.4499998
11.95 0.30000001 5.5
12 0.30000001 5.5
12.05 0.30000001 5.5
11.95 0.34999999 4.5
12 0.34999999 4.5
12.05 0.34999999 4.5
11.95 0.34999999 4.5500002
12 0.34999999 4.5500002
12.05 0.34999999 4.5500002
11.95 0.34999999 4.5999999
12 0.34999999 4.5999999
12.05 0.34999999 4.5999999
11.95 0.34999999 5.4499998
12 0.34999999 5.4499998
12.05 0.34999999 5.4499998
11.95 0.34999999 5.5
12 0.34999999 5.5
12.05 0.34999999 5.5
11.95 0.40000001 4.5
12 0.40000001 4.5
12.05 0.40000001 4.5
11.95 0.40000001 4.5500002
12 0.40000001 4.5500002
12.05 0.40000001 4.5500002
11.95 0.40000001 4.5999999
12 0.40000001 4.5999999
12.05 0.40000001 4.5999999
11.95 0.40000001 5.4499998
12 0.40000001 5.4499998
12.05 0.40000001 5.4499998
11.95 0.40000001 5.5
12 0.40000001 5.5
12.05 0.40000001 5.5
11.95 0.44999999 4.5
12 0.44999999 4.5
12.05 0.44999999 4.5
11.95 0.44999999 4.5500002
12 0.44999999 4.5500002
12.05 0.44999999 4.5500002
11.95 0.44999999 4.5999999
12 0.44999999 4.5999999
12.05 0.44999999 4.5999999
11.95 0.44999999 4.6500001
12 0.44999999 4.6500001
12.05 0.44999999 4.6500001
11.95 0.44999999 4.6999998
12 0.44999999 4.6999998
12.05 0.44999999 4.6999998
11.95 0.44999999 4.75
12 0.44999999 4.75
12.05 0.44999999 4.75
11.95 0.44999999 4.8000002
12 0.44999999 4.8000002
12.05 0.44999999 4.8000002
11.95 0.44999999 4.8499999
12 0.44999999 4.8499999
12.05 0.44999999 4.8499999
11.95 0.44999999 4.9000001
12 0.44999999 4.9000001
12.05 0.44999999 4.9000001
11.95 0.44999999 4.9499998
12 0.44999999 4.9499998
12.05 0.44999999 4.9499998
11.95 0.44999999 5
12 0.44999999 5
12.05 0.44999999 5
11.95 0.44999999 5.0500002
12 0.44999999 5.0500002
12.05 0.44999999 5.0500002
11.95 0.44999999 5.0999999
12 0.44999999 5.0999999
12.05 0.44999999 5.0999999
11.95 0.44999999 5.1500001
12 0.44999999 5.1500001
12.05 0.44999999 5.1500001
11.95 0.44999999 5.1999998
12 0.44999999 5.1999998
12.05 0.44999999 5.1999998
11.95 0.44999999 5.25
12 0.44999999 5.25
12.05 0.44999999 5.25
11.95 0.44999999 5.3000002
12 0.44999999 5.3000002
12.05 0.44999999 5.3000002
11.95 0.44999999 5.3499999
12 0.44999999 5.3499999
12.05 0.44999999 5.3499999
11.95 0.44999999 5.4000001
12 0.44999999 5.4000001
12.05 0.44999999 5.4000001
11.95 0.44999999 5.4499998
12 0.44999999 5.4499998
12.05 0.44999999 5.4499998
11.95 0.44999999 5.5
12 0.44999999 5.5
12.05 0.44999999 5.5
11.95 0.5 4.5
12 0.5 4.5
12.05 0.5 4.5
11.95 0.5 4.5500002
12 0.5 4.5500002
12.05 0.5 4.5500002
11.95 0.5 4.5999999
12 0.5 4.5999999
12.05 0.5 4.5999999
11.95 0.5 4.6500001
12 0.5 4.6500001
12.05 0.5 4.6500001
11.95 0.5 4.6999998
12 0.5 4.6999998
12.05 0.5 4.6999998
11.95 0.5 4.75
12 0.5 4.75
12.05 0.5 4.75
11.95 0.5 4.8000002
12 0.5 4.8000002
12.05 0.5 4.8000002
11.95 0.5 4.8499999
12 0.5 4.8499999
12.05 0.5 4.8499999
11.95 0.5 4.9000001
12 0.5 4.9000001
12.05 0.5 4.9000001
11.95 0.5 4.9499998
12 0.5 4.9499998
12.05 0.5 4.9499998
11.95 0.5 5
12 0.5 5
12.05 0.5 5
11.95 0.5 5.0500002
12 0.5 5.0500002
12.05 0.5 5.0500002
11.95 0.5 5.0999999
12 0.5 5.0999999
12.05 0.5 5.0999999
11.95 0.5 5.1500001
12 0.5 5.1500001
12.05 0.5 5.1500001
11.95 0.5 5.1999998
12 0.5 5.1999998
12.05 0.5 5.1999998
11.95 0.5 5.25
12 0.5 5.25
12.05 0.5 5.25
11.95 0.5 5.3000002
12 0.5 5.3000002
12.05 0.5 5.3000002
11.95 0.5 5.3499999
12 0.5 5.3499999
12.05 0.5 5.3499999
11.95 0.5 5.4000001
12 0.5 5.4000001
12.05 0.5 5.4000001
11.95 0.5 5.4499998
12 0.5 5.4499998
12.05 0.5 5.4499998
11.95 0.5 5.5
12 0.5 5.5
12.05 0.5 5.5
11.95 1 4.5
12 1 4.5
12.05 1 4.5
11.95 1 4.5500002
12 1 4.5500002
12.05 1 4.5500002
11.95 1 4.5999999
12 1 4.5999999
12.05 1 4.5999999
11.95 1 4.6500001
12 1 4.6500001
12.05 1 4.6500001
11.95 1 4.6999998
12 1 4.6999998
12.05 1 4.6999998
11.95 1 4.75
12 1 4.75
12.05 1 4.75
11.95 1 4.8000002
12 1 4.8000002
12.05 1 4.8000002
11.95 1 4.8499999
12 1 4.8499999
12.05 1 4.8499999
11.95 1 4.9000001
12 1 4.9000001
12.05 1 4.9000001
11.95 1 4.9499998
12 1 4.9499998
12.05 1 4.9499998
11.95 1 5
12 1 5
12.05 1 5
11.95 1 5.0500002
12 1 5.0500002
12.05 1 5.0500002
11.95 1 5.0999999
12 1 5.0999999
12.05 1 5.0999999
11.95 1 5.1500001
12 1 5.1500001
12.05 1 5.1500001
11.95 1 5.1999998
12 1 5.1999998
12.05 1 5.1999998
11.95 1 5.25
12 1 5.25
12.05 1 5.25
11.95 1 5.3000002
12 1 5.3000002
12.05 1 5.3000002
11.95 1 5.3499999
12 1 5.3499999
12.05 1 5.3499999
11.95 1 5.4000001
12 1 5.4000001
12.05 1 5.4000001
11.95 1 5.4499998
12 1 5.4499998
12.05 1 5.4499998
11.95 1 5.5
12 1 5.5
12.05 1 5.5
11.95 1.05 4.5
12 1.05 4.5
12.05 1.05 4.5
11.95 1.05 4.5500002
12 1.05 4.5500002
12.05 1.05 4.5500002
11.95 1.05 4.5999999
12 1.05 4.5999999
12.05 1.05 4.5999999
11.95 1.05 4.6500001
12 1.05 4.6500001
12.05 1.05 4.6500001
11.95 1.05 4.6999998
12 1.05 4.6999998
12.05 1.05 4.6999998
11.95 1.05 4.75
12 1.05 4.75
12.05 1.05 4.75
11.95 1.05 4.8000002
12 1.05 4.8000002
12.05 1.05 4.8000002
11.95 1.05 4.8499999
12 1.05 4.8499999
12.05 1.05 4.8499999
11.95 1.05 4.9000001
12 1.05 4.9000001
12.05 1.05 4.9000001
11.95 1.05 4.9499998
12 1.05 4.9499998
12.05 1.05 4.9499998
11.95 1.05 5
12 1.05 5
12.05 1.05 5
11.95 1.05 5.0500002
12 1.05 5.0500002
12.05 1.05 5.0500002
11.95 1.05 5.0999999
12 1.05 5.0999999
12.05 1.05 5.0999999
11.95 1.05 5.1500001
12 1.05 5.1500001
12.05 1.05 5.1500001
11.95 1.05 5.1999998
12 1.05 5.1999998
12.05 1.05 5.1999998
11.95 1.05 5.25
12 1.05 5.25
12.05 1.05 5.25
11.95 1.05 5.3000002
12 1.05 5.3000002
12.05 1.05 5.3000002
11.95 1.05 5.3499999
12 1.05 5.3499999
12.05 1.05 5.3499999
11.95 1.05 5.4000001
12 1.05 5.4000001
12.05 1.05 5.4000001
11.95 1.05 5.4499998
12 1.05 5.4499998
12.05 1.05 5.4499998
11.95 1.05 5.5
12 1.05 5.5
12.05 1.05 5.5
11.95 1.1 4.5
12 1.1 4.5
12.05 1.1 4.5
11.95 1.1 4.5500002
12 1.1 4.5500002
12.05 1.1 4.5500002
11.95 1.1 4.5999999
12 1.1 4.5999999
12.05 1.1 4.5999999
11.95 1.1 4.6500001
12 1.1 4.6500001
12.05 1.1 4.6500001
11.95 1.1 4.6999998
12 1.1 4.6999998
12.05 1.1 4.6999998
11.95 1.1 4.75
12 1.1 4.75
12.05 1.1 4.75
11.95 1.1 4.8000002
12 1.1 4.8000002
12.05 1.1 4.8000002
11.95 1.1 4.8499999
12 1.1 4.8499999
12.05 1.1 4.8499999
11.95 1.1 4.9000001
12 1.1 4.9000001
12.05 1.1 4.9000001
11.95 1.1 4.9499998
12 1.1 4.9499998
12.05 1.1 4.9499998
11.95 1.1 5
12 1.1 5
12.05 1.1 5
11.95 1.1 5.0500002
12 1.1 5.0500002
12.05 1.1 5.0500002
11.95 1.1 5.0999999
12 1.1 5.0999999
12.05 1.1 5.0999999
11.95 1.1 5.1500001
12 1.1 5.1500001
12.05 1.1 5.1500001
11.95 1.1 5.1999998
12 1.1 5.1999998
12.05 1.1 5.1999998
11.95 1.1 5.25
12 1.1 5.25
12.05 1.1 5.25
11.95 1.1 5.3000002
12 1.1 5.3000002
12.05 1.1 5.3000002
11.95 1.1 5.3499999
12 1.1 5.3499999
12.05 1.1 5.3499999
11.95 1.1 5.4000001
12 1.1 5.4000001
12.05 1.1 5.4000001
11.95 1.1 5.4499998
12 1.1 5.4499998
12.05 1.1 5.4499998
11.95 1.1 5.5
12 1.1 5.5
12.05 1.1 5.5
11.95 1.15 4.5
12 1.15 4.5
12.05 1.15 4.5
11.95 1.15 4.5500002
12 1.15 4.5500002
12.05 1.15 4.5500002
11.95 1.15 4.5999999
12 1.15 4.5999999
12.05 1.15 4.5999999
11.95 1.15 5.4499998
12 1.15 5.4499998
12.05 1.15 5.4499998
11.95 1.15 5.5
12 1.15 5.5
12.05 1.15 5.5
11.95 1.2 4.5
12 1.2 4.5
12.05 1.2 4.5
11.95 1.2 4.5500002
12 1.2 4.5500002
12.05 1.2 4.5500002
11.95 1.2 4.5999999
12 1.2 4.5999999
12.05 1.2 4.5999999
11.95 1.2 5.4499998
12 1.2 5.4499998
12.05 1.2 5.4499998
11.95 1.2 5.5
12 1.2 5.5
12.05 1.2 5.5
11.95 1.25 4.5
12 1.25 4.5
12.05 1.25 4.5
11.95 1.25 4.5500002
12 1.25 4.5500002
12.05 1.25 4.5500002
11.95 1.25 4.5999999
12 1.25 4.5999999
12.05 1.25 4.5999999
11.95 1.25 5.4499998
12 1.25 5.4499998
12.05 1.25 5.4499998
11.95 1.25 5.5
12 1.25 5.5
12.05 1.25 5.5
11.95 1.3 4.5
12 1.3 4.5
12.05 1.3 4.5
11.95 1.3 4.5500002
12 1.3 4.5500002
12.05 1.3 4.5500002
11.95 1.3 4.5999999
12 1.3 4.5999999
12.05 1.3 4.5999999
11.95 1.3 5.4499998
12 1.3 5.4499998
12.05 1.3 5.4499998
11.95 1.3 5.5
12 1.3 5.5
12.05 1.3 5.5
11.95 1.35 4.5
12 1.35 4.5
12.05 1.35 4.5
11.95 1.35 4.5500002
12 1.35 4.5500002
12.05 1.35 4.5500002
11.95 1.35 4.5999999
12 1.35 4.5999999
12.05 1.35 4.5999999
11.95 1.35 5.4499998
12 1.35 5.4499998
12.05 1.35 5.4499998
11.95 1.35 5.5
12 1.35 5.5
12.05 1.35 5.5
11.95 1.4 4.5
12 1.4 4.5
12.05 1.4 4.5
11.95 1.4 4.5500002
12 1.4 4.5500002
12.05 1.4 4.5500002
11.95 1.4 4.5999999
12 1.4 4.5999999
12.05 1.4 4.5999999
11.95 1.4 5.4499998
12 1.4 5.4499998
12.05 1.4 5.4499998
11.95 1.4 5.5
12 1.4 5.5
12.05 1.4 5.5
11.95 1.45 4.5
12 1.45 4.5
12.05 1.45 4.5
11.95 1.45 4.5500002
12 1.45 4.5500002
12.05 1.45 4.5500002
11.95 1.45 4.5999999
12 1.45 4.5999999
12.05 1.45 4.5999999
11.95 1.45 5.4499998
12 1.45 5.4499998
12.05 1.45 5.4499998
11.95 1.45 5.5
12 1.45 5.5
12.05 1.45 5.5
11.95 1.5 4.5
12 1.5 4.5
12.05 1.5 4.5
11.95 1.5 4.5500002
12 1.5 4.5500002
12.05 1.5 4.5500002
11.95 1.5 4.5999999
12 1.5 4.5999999
12.05 1.5 4.5999999
11.95 1.5 5.4499998
12 1.5 5.4499998
12.05 1.5 5.4499998
11.95 1.5 5.5
12 1.5 5.5
12.05 1.5 5.5
11.95 1.55 4.5
12 1.55 4.5
12.05 1.55 4.5
11.95 1.55 4.5500002
12 1.55 4.5500002
12.05 1.55 4.5500002
11.95 1.55 4.5999999
12 1.55 4.5999999
12.05 1.55 4.5999999
11.95 1.55 5.4499998
12 1.55 5.4499998
12.05 1.55 5.4499998
11.95 1.55 5.5
12 1.55 5.5
12.05 1.55 5.5
11.95 1.6 4.5
12 1.6 4.5
12.05 1.6 4.5
11.95 1.6 4.5500002
12 1.6 4.5500002
12.05 1.6 4.5500002
11.95 1.6 4.5999999
12 1.6 4.5999999
12.05 1.6 4.5999999
11.95 1.6 5.4499998
12 1.6 5.4499998
12.05 1.6 5.4499998
11.95 1.6 5.5
12 1.6 5.5
12.05 1.6 5.5
11.95 1.65 4.5
12 1.65 4.5
12.05 1.65 4.5
11.95 1.65 4.5500002
12 1.65 4.5500002
12.05 1.65 4.5500002
11.95 1.65 4.5999999
12 1.65 4.5999999
12.05 1.65 4.5999999
11.95 1.65 5.4499998
12 1.65 5.4499998
12.05 1.65 5.4499998
11.95 1.65 5.5
12 1.65 5.5
12.05 1.65 5.5
11.95 1.7 4.5
12 1.7 4.5
12.05 1.7 4.5
11.95 1.7 4.5500002
12 1.7 4.5500002
12.05 1.7 4.5500002
11.95 1.7 4.5999999
12 1.7 4.5999999
12.05 1.7 4.5999999
11.95 1.7 5.4499998
12 1.7 5.4499998
12.05 1.7 5.4499998
11.95 1.7 5.5
12 1.7 5.5
12.05 1.7 5.5
11.95 1.75 4.5
12 1.75 4.5
12.05 1.75 4.5
11.95 1.75 4.5500002
12 1.75 4.5500002
12.05 1.75 4.5500002
11.95 1.75 4.5999999
12 1.75 4.5999999
12.05 1.75 4.5999999
11.95 1.75 5.4499998
12 1.75 5.4499998
12.05 1.75 5.4499998
11.95 1.75 5.5
12 1.75 5.5
12.05 1.75 5.5
11.95 1.8 4.5
12 1.8 4.5
12.05 1.8 4.5
11.95 1.8 4.5500002
12 1.8 4.5500002
12.05 1.8 4.5500002
11.95 1.8 4.5999999
12 1.8 4.5999999
12.05 1.8 4.5999999
11.95 1.8 5.4499998
12 1.8 5.4499998
12.05 1.8 5.4499998
11.95 1.8 5.5
12 1.8 5.5
12.05 1.8 5.5
11.95 1.85 4.5
12 1.85 4.5
12.05 1.85 4.5
11.95 1.85 4.5500002
12 1.85 4.5500002
12.05 1.85 4.5500002
11.95 1.85 4.5999999
12 1.85 4.5999999
12.05 1.85 4.5999999
11.95 1.85 5.4499998
12 1.85 5.4499998
12.05 1.85 5.4499998
11.95 1.85 5.5
12 1.85 5.5
12.05 1.85 5.5
11.95 1.9 4.5
12 1.9 4.5
12.05 1.9 4.5
11.95 1.9 4.5500002
12 1.9 4.5500002
12.05 1.9 4.5500002
11.95 1.9 4.5999999
12 1.9 4.5999999
12.05 1.9 4.5999999
11.95 1.9 4.6500001
12 1.9 4.6500001
12.05 1.9 4.6500001
11.95 1.9 4.6999998
12 1.9 4.6999998
12.05 1.9 4.6999998
11.95 1.9 4.75
12 1.9 4.75
12.05 1.9 4.75
11.95 1.9 4.8000002
12 1.9 4.8000002
12.05 1.9 4.8000002
11.95 1.9 4.8499999
12 1.9 4.8499999
12.05 1.9 4.8499999
11.95 1.9 4.9000001
12 1.9 4.9000001
12.05 1.9 4.9000001
11.95 1.9 4.9499998
12 1.9 4.9499998
12.05 1.9 4.9499998
11.95 1.9 5
12 1.9 5
12.05 1.9 5
11.95 1.9 5.0500002
12 1.9 5.0500002
12.05 1.9 5.0500002
11.95 1.9 5.0999999
12 1.9 5.0999999
12.05 1.9 5.0999999
11.95 1.9 5.1500001
12 1.9 5.1500001
12.05 1.9 5.1500001
11.95 1.9 5.1999998
12 1.9 5.1999998
12.05 1.9 5.1999998
11.95 1.9 5.25
12 1.9 5.25
12.05 1.9 5.25
11.95 1.9 5.3000002
12 1.9 5.3000002
12.05 1.9 5.3000002
11.95 1.9 5.3499999
12 1.9 5.3499999
12.05 1.9 5.3499999
11.95 1.9 5.4000001
12 1.9 5.4000001
12.05 1.9 5.4000001
11.95 1.9 5.4499998
12 1.9 5.4499998
12.05 1.9 5.4499998
11.95 1.9 5.5
12 1.9 5.5
12.05 1.9 5.5
11.95 1.95 4.5
12 1.95 4.5
12.05 1.95 4.5
11.95 1.95 4.5500002
12 1.95 4.5500002
12.05 1.95 4.5500002
11.95 1.95 4.5999999
12 1.95 4.5999999
12.05 1.95 4.5999999
11.95 1.95 4.6500001
12 1.95 4.6500001
12.05 1.95 4.6500001
11.95 1.95 4.6999998
12 1.95 4.6999998
12.05 1.95 4.6999998
11.95 1.95 4.75
12 1.95 4.75
12.05 1.95 4.75
11.95 1.95 4.8000002
12 1.95 4.8000002
12.05 1.95 4.8000002
11.95 1.95 4.8499999
12 1.95 4.8499999
12.05 1.95 4.8499999
11.95 1.95 4.9000001
12 1.95 4.9000001
12.05 1.95 4.9000001
11.95 1.95 4.9499998
12 1.95 4.9499998
12.05 1.95 4.9499998
11.95 1.95 5
12 1.95 5
12.05 1.95 5
11.95 1.95 5.0500002
12 1.95 5.0500002
12.05 1.95 5.0500002
11.95 1.95 5.0999999
12 1.95 5.0999999
12.05 1.95 5.0999999
11.95 1.95 5.1500001
12 1.95 5.1500001
12.05 1.95 5.1500001
11.95 1.95 5.1999998
12 1.95 5.1999998
12.05 1.95 5.1999998
11.95 1.95 5.25
12 1.95 5.25
12.05 1.95 5.25
11.95 1.95 5.3000002
12 1.95 5.3000002
12.05 1.95 5.3000002
11.95 1.95 5.3499999
12 1.95 5.3499999
12.05 1.95 5.3499999
11.95 1.95 5.4000001
12 1.95 5.4000001
12.05 1.95 5.4000001
11.95 1.95 5.4499998
12 1.95 5.4499998
12.05 1.95 5.4499998
11.95 1.95 5.5
12 1.95 5.5
12.05 1.95 5.5
-2.05 0.5 5
-2.05 0.55000001 5
-2.05 0.49937513 5.0249896
-2.05 0.54931265 5.0274887
-2.05 0.49750209 5.0499167
-2.05 0.5472523 5.0549083
-2.05 0.49438554 5.074719
-2.05 0.54382408 5.082191
-2.05 0.4900333 5.0993347
-2.05 0.53903663 5.1092682
-2.05 0.48445621 5.123702
-2.05 0.53290182 5.1360722
-2.05 0.47766826 5.1477599
-2.05 0.52543509 5.1625361
-2.05 0.46968636 5.1714487
-2.05 0.51665497 5.1885939
-2.05 0.46053049 5.1947093
-2.05 0.50658357 5.21418
-2.05 0.45022357 5.2174826
-2.05 0.4952459 5.2392311
-2.05 0.43879128 5.2397127
-2.05 0.4826704 5.2636843
-2.05 0.42626226 5.2613435
-2.05 0.46888849 5.287478
-2.05 0.41266781 5.2823215
-2.05 0.45393458 5.3105536
-2.05 0.3980419 5.3025932
-2.05 0.43784609 5.3328524
-2.05 0.38242111 5.3221087
-2.05 0.42066321 5.3543196
-2.05 0.36584443 5.3408194
-2.05 0.40242887 5.3749013
-2.05 0.34835336 5.3586779
-2.05 0.38318869 5.394546
-2.05 0.32999158 5.3756404
-2.05 0.36299074 5.4132042
-2.05 0.31080499 5.3916636
-2.05 0.34188548 5.43083
-2.05 0.29084155 5.4067078
-2.05 0.3199257 5.4473786
-2.05 0.27015114 5.4207354
-2.05 0.29716626 5.4628091
-2.05 0.24878553 5.4337115
-2.05 0.27366409 5.4770827
-2.05 0.22679806 5.4456038
-2.05 0.24947786 5.4901643
-2.05 0.20424372 5.4563818
-2.05 0.22466809 5.5020204
-2.05 0.18117888 5.4660196
-2.05 0.19929676 5.5126214
-2.05 0.15766118 5.4744921
-2.05 0.1734273 5.5219417
-2.05 0.13374941 5.4817791
-2.05 0.14712435 5.5299568
-2.05 0.10950334 5.4878616
-2.05 0.12045368 5.5366478
-2.05 0.084983572 5.4927249
-2.05 0.093481928 5.5419974
-2.05 0.060251385 5.4963565
-2.05 0.06627652 5.5459924
-2.05 0.035368599 5.4987473
-2.05 0.03890546 5.5486221
-2.05 0.010397414 5.4998918
